x;y;z;R;G;B;semantic_label
4.31645870;-1.08340907;-5.83742809;148;115;82;1.000000
3.19380188;-1.63629878;-5.82314348;130;97;72;1.000000
3.83683395;-1.85441232;-5.82500124;156;123;98;1.000000
3.37571454;-1.87695348;-5.82155323;163;130;105;1.000000
3.09031487;-2.01338124;-5.81797028;173;140;115;1.000000
3.73830605;-1.00979662;-5.83430910;138;105;80;1.000000
3.14564562;-1.80353951;-5.82083368;131;106;82;1.000000
3.83089638;-1.86548257;-5.82482958;135;110;85;1.000000
3.64948416;-1.17708349;-5.83171797;146;113;88;1.000000
4.23821259;-1.93694425;-5.82679510;148;107;82;1.000000
4.00987959;-1.41175938;-5.83142996;146;105;80;1.000000
3.13525033;-0.57706130;-5.83526468;142;109;84;1.000000
3.08897781;-1.17816067;-5.82783747;156;123;98;1.000000
3.69995403;-0.61444110;-5.83871937;148;115;90;1.000000
3.62240028;-1.27428985;-5.83038187;123;98;73;1.000000
3.62406254;-2.21712255;-5.81924438;150;117;92;1.000000
4.54351425;-1.96268868;-5.82859802;148;115;90;1.000000
4.43682098;-0.39409435;-5.84640980;130;97;72;1.000000
4.57813025;-2.04457903;-5.82786798;145;112;87;1.000000
3.22839212;-1.20376372;-5.82849693;140;99;74;1.000000
2.97833848;-1.13856375;-5.82754230;157;124;99;1.000000
3.22884321;-1.74069118;-5.82215071;154;121;88;1.000000
3.70478249;-2.25705123;-5.81932926;146;113;88;1.000000
4.34496784;-1.33112335;-5.83469582;154;113;88;1.000000
4.09217024;-0.02523305;-5.84839344;150;109;92;1.000000
3.08698893;-1.05543482;-5.82927513;150;117;92;1.000000
2.93348336;-1.45387220;-5.82350445;158;125;92;1.000000
3.59162116;-1.83969808;-5.82348347;138;105;80;1.000000
3.87798381;-0.61181331;-5.83997917;154;113;80;1.000000
4.37818813;-0.93754673;-5.83957863;158;117;92;1.000000
4.38453197;-0.59135085;-5.84371614;140;116;99;1.000000
4.11756086;-2.19433689;-5.82291889;134;101;76;1.000000
4.23776674;-0.59469950;-5.84266424;156;123;98;1.000000
4.47694540;-1.22316384;-5.83688307;158;125;92;1.000000
4.58483887;-1.75672030;-5.83131838;157;115;91;1.000000
4.57562160;-1.04729807;-5.83964348;163;130;97;1.000000
4.07038498;-2.01921201;-5.82466459;123;90;65;1.000000
4.28363276;-1.77521825;-5.82902098;157;124;99;1.000000
3.01590824;-0.83779538;-5.83135796;150;109;92;1.000000
4.40209961;-1.07994127;-5.83805990;164;131;107;1.000000
4.40619659;-0.34474090;-5.84678221;132;99;74;1.000000
4.42481232;-1.00853586;-5.83906126;150;109;84;1.000000
3.44650245;-0.65114337;-5.83653641;150;117;92;1.000000
2.89080763;-1.24081552;-5.82572937;173;131;107;1.000000
4.42605686;-0.91770899;-5.84014416;150;109;84;1.000000
4.56775427;-1.01472378;-5.83997440;132;99;74;1.000000
3.10631514;-0.97413838;-5.83036947;145;112;95;1.000000
3.93052721;-2.25454450;-5.82091618;138;105;80;1.000000
4.43663120;-0.21078582;-5.84857607;142;109;84;1.000000
3.98992729;-0.61624271;-5.84069920;150;109;84;1.000000
3.34393096;-0.90234208;-5.83285809;142;101;76;1.000000
4.59002113;-0.60488653;-5.84497404;149;132;107;1.000000
3.14610267;-1.50387514;-5.82438040;138;105;80;1.000000
4.32581043;-1.59600711;-5.83143139;142;109;84;1.000000
3.39814711;-1.26839459;-5.82890368;132;99;74;1.000000
3.34010839;-0.95463395;-5.83221340;131;106;82;1.000000
4.37643576;-1.14836645;-5.83707380;173;140;107;1.000000
4.19500685;-0.15280725;-5.84759426;173;140;115;1.000000
4.58242416;-1.95812678;-5.82891989;134;101;68;1.000000
3.23103070;-0.68895423;-5.83460236;146;113;88;1.000000
3.26926732;-0.59193957;-5.83601332;148;115;91;1.000000
3.22867775;-0.94458324;-5.83156347;150;117;92;1.000000
4.27354097;-1.77454925;-5.82895947;154;113;88;1.000000
3.20180225;-2.20939875;-5.81642151;167;134;101;1.000000
3.10816669;-0.92619044;-5.83094931;150;109;84;1.000000
4.11805916;-0.81906813;-5.83918476;158;125;101;1.000000
3.66865540;-1.02343011;-5.83366728;130;97;72;1.000000
3.10743761;-1.75754750;-5.82111359;164;123;98;1.000000
3.05803061;-1.32420838;-5.82589674;135;102;77;1.000000
3.50115442;-0.92014736;-5.83373260;142;109;84;1.000000
4.50492525;-1.30540538;-5.83610392;148;115;82;1.000000
3.88391876;-1.07311070;-5.83456516;140;116;99;1.000000
3.92680907;0.05161795;-5.84816074;154;121;97;1.000000
3.69150662;-1.94774294;-5.82289553;164;131;98;1.000000
4.15865850;-1.42024732;-5.83235598;157;124;91;1.000000
3.18881297;-0.93267536;-5.83142948;158;117;92;1.000000
3.11665916;-2.10294366;-5.81709290;167;134;101;1.000000
3.92955518;-0.45515969;-5.84218740;158;117;92;1.000000
4.17662430;-1.16818786;-5.83546114;171;138;105;1.000000
4.44997787;-1.12814796;-5.83782053;167;134;101;1.000000
4.53147316;-0.84630716;-5.84171534;148;115;98;1.000000
3.02889919;-0.59033644;-5.83437395;158;117;92;1.000000
3.99102402;0.09663042;-5.84913635;154;121;97;1.000000
3.52891731;-0.60245609;-5.83768082;130;97;72;1.000000
3.12219858;-2.02275562;-5.81807995;158;117;92;1.000000
4.14467907;-1.25465226;-5.83421803;150;109;84;1.000000
3.94610882;-1.30137694;-5.83229494;132;99;74;1.000000
4.15731812;-0.88754660;-5.83864594;140;107;82;1.000000
3.61664867;-1.26842153;-5.83041096;137;112;95;1.000000
3.03177643;-0.84839809;-5.83134222;146;105;88;1.000000
3.00354910;-1.68517840;-5.82125235;138;105;80;1.000000
3.79908276;-0.37603223;-5.84222269;146;113;88;1.000000
4.38534355;-1.67696166;-5.83088493;146;113;97;1.000000
4.18133545;-2.14020896;-5.82399893;140;99;74;1.000000
3.44761801;-1.67389619;-5.82445049;146;113;88;1.000000
4.34366179;0.17273985;-5.85246992;150;109;84;1.000000
3.51114988;-0.94279724;-5.83353376;142;117;92;1.000000
2.90565634;-1.03030717;-5.82832098;158;117;92;1.000000
4.05176115;-0.95033175;-5.83717537;163;130;97;1.000000
3.28279543;-1.64629650;-5.82363939;118;94;77;1.000000
3.44192934;-0.30476028;-5.84060049;148;115;82;1.000000
3.96680140;-1.18198705;-5.83384943;145;120;95;1.000000
3.87186217;-0.47453788;-5.84155989;150;109;84;1.000000
4.03230667;-1.29008698;-5.83302355;146;105;80;1.000000
3.16664314;-2.30296016;-5.81507301;132;115;91;1.000000
4.47252560;-1.07650685;-5.83858681;157;124;91;1.000000
3.81576681;-0.24944611;-5.84383488;175;150;117;1.000000
3.23589659;-1.62928891;-5.82351685;138;105;80;1.000000
4.29006958;-1.01633918;-5.83803892;138;97;64;1.000000
4.39920044;-1.65948677;-5.83118677;135;110;85;1.000000
2.98220158;-1.35604882;-5.82499695;158;117;84;1.000000
4.34280014;-2.12725329;-5.82526684;138;105;80;1.000000
4.63676834;-0.66128373;-5.84463024;158;117;92;1.000000
3.94579029;-2.07878828;-5.82310009;138;105;80;1.000000
3.12410712;-1.84510767;-5.82019329;150;109;84;1.000000
4.14895773;-1.50590634;-5.83127594;142;101;76;1.000000
4.38823557;-1.19623649;-5.83658934;175;142;109;1.000000
4.51569986;-0.32661012;-5.84775209;163;130;105;1.000000
3.22612238;-2.07519841;-5.81817675;138;97;64;1.000000
3.86467385;-1.11265731;-5.83396482;157;124;107;1.000000
4.63465595;-1.31539845;-5.83688068;158;125;101;1.000000
3.29247904;-1.11661172;-5.82996988;158;117;92;1.000000
3.72920418;-2.27184606;-5.81932306;163;130;105;1.000000
4.49345398;-1.19818163;-5.83729219;174;141;116;1.000000
2.82222891;-0.91244113;-5.82913923;171;138;105;1.000000
3.43443871;-1.51392210;-5.82625103;154;113;88;1.000000
4.14283895;-0.45214081;-5.84369469;138;97;72;1.000000
3.91139483;-0.20764220;-5.84498882;137;104;79;1.000000
4.43678570;-1.59814787;-5.83217144;148;115;82;1.000000
3.41314983;-0.31544867;-5.84027576;156;123;98;1.000000
4.56824589;-1.23498940;-5.83737326;132;107;82;1.000000
4.24643230;-0.28560045;-5.84637928;146;105;80;1.000000
3.41937637;-1.34746182;-5.82811546;132;107;82;1.000000
3.27586627;-2.05620122;-5.81874466;134;101;76;1.000000
4.63447762;-1.72903657;-5.83198833;168;134;100;1.000000
3.15789509;-1.61840940;-5.82310724;134;101;84;1.000000
4.33409119;-1.08554721;-5.83752441;165;124;91;1.000000
3.60917187;-0.07870114;-5.84442806;148;107;82;1.000000
3.18259716;-1.36651242;-5.82625628;163;130;105;1.000000
4.31617641;-0.75980735;-5.84125280;175;142;109;1.000000
2.97548056;-1.17740083;-5.82706308;163;130;97;1.000000
3.81176424;-0.43786687;-5.84157896;130;97;64;1.000000
3.86912179;-0.44474423;-5.84189320;150;109;84;1.000000
3.41958046;-2.29437470;-5.81691980;149;116;91;1.000000
3.65621758;-1.09344089;-5.83275366;150;109;84;1.000000
3.46203852;-2.32506418;-5.81685019;163;130;105;1.000000
4.20111799;-0.29155892;-5.84599590;150;109;84;1.000000
4.54307556;-0.69746983;-5.84355545;154;121;97;1.000000
3.70594549;-0.61202919;-5.83878946;142;109;84;1.000000
4.27444696;-2.00994444;-5.82618189;145;128;104;1.000000
4.16746902;0.36848420;-5.85356855;167;125;101;1.000000
3.58673978;-0.11577243;-5.84383488;146;105;80;1.000000
3.71113253;-0.76698083;-5.83699274;138;97;64;1.000000
3.24945641;-1.60171342;-5.82393646;158;117;92;1.000000
4.35231495;-0.70661521;-5.84213114;131;98;74;1.000000
4.01386881;-1.93133831;-5.82531357;140;107;82;1.000000
4.30876970;0.15859890;-5.85206175;148;115;98;1.000000
2.99396825;-1.95283389;-5.81802177;142;117;92;1.000000
4.13627434;0.13196078;-5.85055590;167;134;109;1.000000
3.31013942;-1.68173265;-5.82340908;146;113;88;1.000000
4.44813395;-1.94481421;-5.82815075;142;109;84;1.000000
4.61913490;-0.41567171;-5.84741259;167;134;109;1.000000
3.49379063;-1.68242097;-5.82466793;142;109;92;1.000000
4.47690535;-0.27337709;-5.84811354;164;123;98;1.000000
4.42796183;-1.23696327;-5.83638191;127;93;76;1.000000
4.42261744;-0.28185871;-5.84763861;106;90;73;1.000000
3.33631182;-0.90344411;-5.83279276;150;109;84;1.000000
3.61648393;-1.84560204;-5.82358503;150;109;84;1.000000
3.24424314;-1.81486440;-5.82138014;150;117;92;1.000000
3.11679220;-0.47091982;-5.83639240;146;113;88;1.000000
4.20635033;-1.28784084;-5.83425093;163;130;97;1.000000
4.59701729;-1.58209014;-5.83346748;150;117;92;1.000000
2.83322477;-0.97393322;-5.82848787;138;105;80;1.000000
3.42598152;-1.10439265;-5.83103561;150;109;84;1.000000
4.13251972;-1.87443519;-5.82680511;170;137;112;1.000000
3.99530506;-0.28246367;-5.84468317;145;120;95;1.000000
4.38965225;-0.57144910;-5.84398746;130;97;72;1.000000
4.26753616;-1.77534795;-5.82890844;154;113;88;1.000000
4.24078655;-1.16155124;-5.83598232;157;115;82;1.000000
4.31620789;-1.69552386;-5.83018827;140;107;82;1.000000
3.38254189;-1.26046324;-5.82888985;142;109;92;1.000000
4.27014160;-0.99495888;-5.83815479;130;97;72;1.000000
4.00212574;-1.73232222;-5.82758570;132;99;82;1.000000
3.40090418;-2.01315856;-5.82011652;158;117;92;1.000000
3.72704935;-1.78889704;-5.82501841;156;115;90;1.000000
4.45418358;-1.80734587;-5.82981777;121;104;87;1.000000
4.22960567;-1.30449760;-5.83421421;175;134;101;1.000000
3.32952809;-0.93087959;-5.83242130;134;101;84;1.000000
3.74355316;-2.01823282;-5.82242060;124;91;66;1.000000
3.59261107;-0.13340473;-5.84366703;150;109;84;1.000000
3.74897099;-1.06067622;-5.83378124;163;130;97;1.000000
3.87477565;-0.32467240;-5.84335232;157;124;107;1.000000
3.02676296;-1.23803568;-5.82670021;158;117;92;1.000000
3.93905044;-1.64925659;-5.82813263;142;101;76;1.000000
3.23705053;-1.24337590;-5.82808828;164;123;98;1.000000
3.52266741;-0.63706762;-5.83722830;115;98;73;1.000000
3.94454527;-0.51884633;-5.84153748;154;113;80;1.000000
4.60324860;-0.97951412;-5.84063578;149;124;99;1.000000
3.05289865;-1.12124252;-5.82826138;148;115;91;1.000000
3.63536930;-0.72503614;-5.83696604;130;88;55;1.000000
3.46420240;-0.84838700;-5.83432579;154;113;88;1.000000
4.11616468;-0.82499313;-5.83910179;158;125;101;1.000000
3.62224030;-0.74181008;-5.83667707;121;88;55;1.000000
4.60154533;-1.03942561;-5.83991528;157;124;99;1.000000
3.52382088;-1.60789120;-5.82575655;154;121;88;1.000000
3.09594345;-1.59141076;-5.82299900;146;113;88;1.000000
3.40917182;-1.94359624;-5.82099581;154;121;88;1.000000
4.53543568;-1.94886529;-5.82870531;138;97;72;1.000000
3.16779447;-1.95738864;-5.81916714;146;105;80;1.000000
3.15251493;-0.76232237;-5.83319330;148;107;82;1.000000
4.30755091;-0.29966751;-5.84663439;146;105;80;1.000000
3.74033260;-0.68508184;-5.83816242;125;92;59;1.000000
4.15051270;-1.72042775;-5.82875061;150;117;92;1.000000
3.71087241;0.02470140;-5.84635258;134;109;92;1.000000
3.53359246;-0.09028465;-5.84376907;150;109;84;1.000000
3.25524569;-0.38533467;-5.83835983;124;82;58;1.000000
3.84612465;-0.44611719;-5.84171820;156;123;98;1.000000
3.95490456;-1.09307575;-5.83481932;148;123;98;1.000000
4.20665264;-0.87835908;-5.83909512;164;131;98;1.000000
3.96714211;-1.80770874;-5.82645321;158;117;92;1.000000
3.71832132;-1.81659818;-5.82463074;154;113;80;1.000000
4.28740978;0.27672416;-5.85331106;148;115;91;1.000000
3.80590916;-1.13470352;-5.83329821;150;117;92;1.000000
3.89008284;-0.70672345;-5.83894014;146;105;72;1.000000
4.28120899;-1.65810931;-5.83038902;148;107;82;1.000000
3.51127696;-2.28955698;-5.81760931;139;106;82;1.000000
3.76671410;-1.12555063;-5.83313656;156;123;98;1.000000
4.02556801;-0.53933829;-5.84185410;154;113;88;1.000000
3.21111488;-1.92861354;-5.81980658;154;121;97;1.000000
3.77443409;-1.93656611;-5.82359934;163;130;105;1.000000
3.34860444;-0.59075201;-5.83657503;154;113;88;1.000000
4.59150743;-1.34072137;-5.83628368;156;131;107;1.000000
3.44540644;-2.24470615;-5.81768560;165;132;107;1.000000
4.49557495;-1.94190478;-5.82851267;138;105;80;1.000000
4.42471170;-1.54757643;-5.83268642;171;138;105;1.000000
4.24538040;-0.94914949;-5.83852530;140;124;107;1.000000
3.80730104;-1.63901842;-5.82734489;132;91;58;1.000000
4.35760593;-0.02578226;-5.85021830;132;99;74;1.000000
3.63141823;-0.22992139;-5.84279346;157;124;91;1.000000
4.00995064;-0.77368110;-5.83897543;142;109;92;1.000000
3.96542835;-1.86261559;-5.82579231;115;99;82;1.000000
3.80160308;-1.42075992;-5.82988644;148;115;90;1.000000
2.91989756;-0.67826378;-5.83258200;154;113;88;1.000000
3.62728310;-0.48600441;-5.83973646;140;116;99;1.000000
3.37810993;-1.97566795;-5.82040262;157;124;91;1.000000
4.44375134;-1.16473007;-5.83734512;163;130;105;1.000000
4.49557686;-0.20903721;-5.84900331;148;115;90;1.000000
4.35061502;-1.29640615;-5.83514500;138;105;80;1.000000
3.25492859;-0.57279193;-5.83614111;163;130;105;1.000000
4.14691496;-0.28387231;-5.84571266;154;113;88;1.000000
4.45085287;-0.21346346;-5.84864235;142;109;84;1.000000
2.78536415;-0.85081893;-5.82961321;175;142;109;1.000000
4.33089113;-0.52106631;-5.84417772;142;101;76;1.000000
3.93107748;0.02583569;-5.84788561;154;113;88;1.000000
4.07009172;0.11172719;-5.84986019;163;130;97;1.000000
4.41411781;-1.02074242;-5.83884287;135;94;69;1.000000
4.58400583;-1.75780749;-5.83129978;150;109;84;1.000000
4.13560772;-1.39528418;-5.83249235;142;101;76;1.000000
4.10543919;-1.84814489;-5.82692909;143;118;94;1.000000
3.84074211;-0.54221833;-5.84054470;140;107;82;1.000000
3.81558323;-0.91478014;-5.83596563;146;105;80;1.000000
3.51181436;-0.51194531;-5.83863306;130;105;80;1.000000
4.44200802;-0.89563215;-5.84051466;130;113;88;1.000000
3.35586715;-0.79352462;-5.83422756;134;92;59;1.000000
4.09870481;-1.35796309;-5.83267879;132;107;82;1.000000
3.68696976;-1.58082855;-5.82720232;138;97;72;1.000000
3.99093413;-0.22559737;-5.84532499;134;101;76;1.000000
3.03230023;-1.20949280;-5.82707548;163;130;105;1.000000
3.21598101;-2.15585899;-5.81715250;137;104;79;1.000000
4.34404373;-0.13449132;-5.84883928;167;134;109;1.000000
3.25764441;-2.00877404;-5.81917953;163;130;105;1.000000
3.44440961;-1.96242476;-5.82101631;158;125;101;1.000000
3.85872960;-0.08032879;-5.84613085;138;105;80;1.000000
3.63798141;-0.42479232;-5.84053421;138;97;72;1.000000
3.67872143;-0.28009927;-5.84252644;149;132;107;1.000000
3.75189161;-0.76557887;-5.83729076;142;101;76;1.000000
3.29902935;-1.69346702;-5.82319355;142;117;92;1.000000
3.18775582;-1.08219266;-5.82965422;162;128;111;1.000000
3.99600840;-0.46196419;-5.84256506;154;113;88;1.000000
2.95947623;-0.62268627;-5.83351231;164;123;98;1.000000
3.27077866;-1.19740450;-5.82886457;156;115;90;1.000000
3.47288918;-0.31784958;-5.84066010;138;105;80;1.000000
3.25617695;-1.18934321;-5.82885885;158;117;92;1.000000
3.22642469;-1.39714980;-5.82619619;148;115;90;1.000000
4.34252357;-0.00940943;-5.85030794;146;105;80;1.000000
3.63431931;-0.53559011;-5.83919859;124;82;58;1.000000
3.69234276;-1.27077782;-5.83090591;146;121;105;1.000000
4.19656324;-1.47692156;-5.83194780;163;121;88;1.000000
3.02120447;-1.39056003;-5.82485819;164;123;90;1.000000
3.29148984;-0.44079340;-5.83795452;119;86;61;1.000000
3.45038748;-2.08090234;-5.81965685;162;128;94;1.000000
3.25146747;-1.60264087;-5.82393932;154;113;88;1.000000
3.78986287;-0.06466537;-5.84584093;163;130;105;1.000000
3.32890654;-2.26021194;-5.81669807;157;132;107;1.000000
3.31503415;-0.96751487;-5.83188868;146;113;88;1.000000
4.28685951;-2.16693783;-5.82441139;140;99;74;1.000000
4.00955105;-1.81397915;-5.82667160;138;105;80;1.000000
3.42100549;-0.46241677;-5.83859205;143;110;85;1.000000
3.86546755;-1.93168592;-5.82428551;161;120;95;1.000000
4.16605282;-0.55877167;-5.84259415;138;105;80;1.000000
4.47779608;-0.97259414;-5.83985186;137;120;95;1.000000
3.26777983;-1.96116722;-5.81981230;134;117;83;1.000000
3.73683071;-1.91853201;-5.82355309;153;112;87;1.000000
4.49616957;-0.16789728;-5.84949398;158;117;92;1.000000
4.22095013;0.46242851;-5.85504818;158;125;101;1.000000
4.45519495;-1.18934655;-5.83713293;164;123;98;1.000000
3.94853258;-2.19286084;-5.82177019;142;109;84;1.000000
3.14417028;-2.26956582;-5.81531239;134;101;76;1.000000
3.55892062;-2.32139540;-5.81756163;130;113;88;1.000000
4.03552771;-2.13954115;-5.82300091;148;131;107;1.000000
4.20463276;-0.73263514;-5.84080458;134;101;84;1.000000
4.26527500;-1.95911920;-5.82671976;140;107;82;1.000000
3.87087107;-0.35833970;-5.84292698;142;101;76;1.000000
3.84538317;-0.71274674;-5.83856058;150;109;84;1.000000
3.85407305;-0.15895684;-5.84516907;154;113;88;1.000000
3.26545858;-2.32937527;-5.81544256;182;157;132;1.000000
4.48642540;-1.37049043;-5.83520603;171;138;105;1.000000
3.92049932;-1.03712702;-5.83524275;146;113;88;1.000000
3.49413776;-0.95905012;-5.83322430;148;123;107;1.000000
3.67657900;-1.52075899;-5.82784128;146;105;80;1.000000
4.12020636;-0.35947540;-5.84463453;150;109;84;1.000000
3.91037321;-1.01381719;-5.83544922;150;109;84;1.000000
4.07606792;0.33854809;-5.85258389;134;109;84;1.000000
4.36418915;-0.93938398;-5.83946085;154;113;80;1.000000
3.95791912;-0.67039907;-5.83983755;138;97;72;1.000000
4.10356331;-0.25254667;-5.84578419;163;121;88;1.000000
4.44196939;-2.13221312;-5.82589245;142;101;76;1.000000
4.58364630;-1.77797699;-5.83105850;156;115;90;1.000000
3.50776291;-0.12918858;-5.84313107;124;107;90;1.000000
4.14419270;0.37590232;-5.85349512;154;113;88;1.000000
4.58599377;-0.93937910;-5.84099150;148;115;98;1.000000
3.89265323;-0.99883008;-5.83550358;146;113;88;1.000000
3.85944223;-2.04590750;-5.82289314;156;123;98;1.000000
3.54872084;-1.69868112;-5.82485485;132;107;82;1.000000
3.69087267;-1.24292648;-5.83122540;164;131;98;1.000000
3.17952204;-0.56318104;-5.83573437;121;104;87;1.000000
3.61068439;-0.18852466;-5.84313965;164;131;98;1.000000
4.10866070;-2.21484756;-5.82261515;134;101;76;1.000000
3.84808493;-1.81755257;-5.82551479;146;113;88;1.000000
3.32005715;-1.86863744;-5.82126760;164;131;98;1.000000
2.95328760;-1.88944173;-5.81849051;150;117;92;1.000000
4.43031120;-0.47753799;-5.84537792;158;117;92;1.000000
3.52278423;-0.95667523;-5.83344984;145;128;104;1.000000
3.06627274;-2.15195537;-5.81616592;142;101;76;1.000000
4.27044153;0.33407173;-5.85387230;142;109;84;1.000000
4.56042671;-0.17464572;-5.84985781;154;121;88;1.000000
4.27455473;0.18785261;-5.85217142;142;109;84;1.000000
4.60797215;-0.60367799;-5.84511232;150;117;92;1.000000
3.18162751;-0.86296320;-5.83220387;164;131;107;1.000000
4.39665413;-0.60453594;-5.84364414;150;109;84;1.000000
3.41118693;-0.70468032;-5.83565998;149;124;99;1.000000
3.50710535;-2.17930055;-5.81888485;163;130;97;1.000000
4.28521061;-2.07398200;-5.82549953;150;117;92;1.000000
4.24414539;-1.72383213;-5.82935619;123;98;73;1.000000
3.32446480;-2.37465739;-5.81531382;150;117;92;1.000000
2.95656228;-1.47039795;-5.82346821;145;111;94;1.000000
3.70158195;-0.93721515;-5.83491421;138;105;80;1.000000
4.28163958;0.23631117;-5.85279369;148;123;98;1.000000
4.30540180;-1.51389611;-5.83226109;140;107;82;1.000000
3.87799144;-0.49082232;-5.84140968;150;109;84;1.000000
3.10833740;-2.19945240;-5.81589413;167;125;92;1.000000
3.44647741;-0.23387064;-5.84147024;134;101;76;1.000000
3.61508656;-1.51936293;-5.82743359;142;109;84;1.000000
3.19909191;-1.35214102;-5.82653999;134;117;92;1.000000
3.80970907;-1.32975006;-5.83101845;138;105;80;1.000000
3.23764563;-0.69204205;-5.83461142;146;113;88;1.000000
4.40280819;-1.93291688;-5.82797861;142;109;92;1.000000
3.40812254;-1.04600132;-5.83160257;148;115;90;1.000000
4.37215137;0.12457675;-5.85209703;163;130;97;1.000000
3.56892776;-1.15164924;-5.83146286;150;109;84;1.000000
3.56540751;-0.37670770;-5.84060240;148;131;107;1.000000
3.73756981;-2.12962103;-5.82106209;142;109;84;1.000000
4.05459309;-2.00107837;-5.82476997;150;117;92;1.000000
4.21645308;-1.53586435;-5.83138800;154;113;88;1.000000
3.23573875;-1.29214001;-5.82750273;146;105;80;1.000000
3.05115509;-0.85751063;-5.83136797;154;113;88;1.000000
3.78301239;0.08178234;-5.84752512;146;105;80;1.000000
3.45155859;-0.97270977;-5.83276892;131;115;98;1.000000
4.49780798;-2.01186681;-5.82770061;165;132;107;1.000000
4.38426733;-1.18690228;-5.83667231;165;132;99;1.000000
4.34862661;-0.54834914;-5.84397697;146;105;80;1.000000
3.24769950;-0.60966831;-5.83565474;158;134;109;1.000000
4.21820259;-1.62537003;-5.83034182;130;105;80;1.000000
3.73596692;-0.69618571;-5.83800125;132;91;58;1.000000
3.58669138;-0.95022988;-5.83396721;142;109;84;1.000000
3.66891241;-0.01383675;-5.84560728;138;105;80;1.000000
3.29840851;-0.42851076;-5.83814716;138;105;80;1.000000
3.80145597;-2.16587973;-5.82107401;142;109;84;1.000000
4.52624035;-2.04337716;-5.82752466;171;138;105;1.000000
3.77277517;-0.86138666;-5.83630180;154;113;88;1.000000
3.37332773;-1.32379770;-5.82807732;157;124;99;1.000000
4.28388119;-1.52729058;-5.83195448;142;101;76;1.000000
4.18149567;-1.21364534;-5.83495665;142;125;101;1.000000
3.77477336;-0.22259153;-5.84386921;138;105;80;1.000000
4.17221928;-0.48737177;-5.84348106;158;125;92;1.000000
4.29636812;-0.60144401;-5.84298897;163;130;97;1.000000
4.58827496;-0.74398661;-5.84331751;146;105;80;1.000000
4.45800209;-0.97467065;-5.83969021;138;105;80;1.000000
3.49015141;-0.29604551;-5.84103680;140;107;82;1.000000
4.61455441;-1.99810076;-5.82866907;163;130;97;1.000000
4.35194302;-1.26214981;-5.83555984;150;117;92;1.000000
4.37780142;-1.44449234;-5.83358192;154;113;88;1.000000
3.80197334;-0.95193201;-5.83543253;142;101;76;1.000000
4.31870651;-0.17547226;-5.84817982;142;109;92;1.000000
4.56490088;-0.45961666;-5.84651852;163;130;97;1.000000
3.00761271;-1.13280201;-5.82781219;163;130;105;1.000000
4.15253639;-0.65885389;-5.84131765;124;82;58;1.000000
4.58912516;-1.06634831;-5.83951139;163;130;105;1.000000
4.18631744;-0.33501911;-5.84537983;153;120;95;1.000000
3.66968584;-1.73768604;-5.82522869;146;105;72;1.000000
4.64090061;-0.43317965;-5.84735584;167;142;109;1.000000
4.50738621;-0.83871633;-5.84163904;150;117;92;1.000000
4.01011515;-0.32686615;-5.84426022;145;112;87;1.000000
3.84926701;-0.51925069;-5.84087515;142;101;76;1.000000
3.84674501;-0.03675327;-5.84656334;145;111;94;1.000000
2.98468399;-1.02065527;-5.82897997;153;128;104;1.000000
3.54469991;-0.42121941;-5.83993292;134;101;76;1.000000
4.03601742;-1.35382390;-5.83229542;158;117;92;1.000000
4.46768999;-0.11390832;-5.84993553;156;123;98;1.000000
4.21775818;-0.78630286;-5.84026003;130;97;72;1.000000
3.41596961;-0.30818459;-5.84038162;156;123;98;1.000000
4.12720871;-1.35707688;-5.83288622;134;109;92;1.000000
4.51804638;-0.31491205;-5.84790611;163;130;97;1.000000
2.86640525;-1.08380294;-5.82741737;150;117;92;1.000000
3.73082590;-0.82393134;-5.83645535;132;91;58;1.000000
4.35527897;-2.17869782;-5.82474422;150;109;84;1.000000
3.53337431;-2.09839225;-5.82002258;128;112;87;1.000000
3.10591030;-1.95620668;-5.81875420;140;107;82;1.000000
3.38064766;-2.26783466;-5.81696510;148;107;74;1.000000
4.51197958;-0.22545087;-5.84892225;164;123;98;1.000000
4.19326735;-0.53272295;-5.84309006;140;107;82;1.000000
3.52302885;-0.26436219;-5.84163809;148;107;82;1.000000
3.11439395;-0.99956107;-5.83012486;137;104;87;1.000000
4.04339170;-0.62818444;-5.84092665;138;97;64;1.000000
3.45192146;-1.56920791;-5.82571793;158;117;92;1.000000
3.66655731;-1.40645921;-5.82912350;148;115;82;1.000000
4.13731003;-2.03805327;-5.82490349;121;104;87;1.000000
3.44896817;-1.20254576;-5.83003330;148;115;91;1.000000
2.86423588;-1.22298169;-5.82575703;172;138;104;1.000000
3.69516230;-1.24722672;-5.83120346;158;125;92;1.000000
3.24620819;-2.34246111;-5.81515503;194;161;136;1.000000
3.18178368;-1.21186829;-5.82807922;150;109;84;1.000000
3.46741128;-0.38440073;-5.83983517;157;124;91;1.000000
3.28747272;-1.98560810;-5.81965923;179;146;113;1.000000
3.27339268;-2.19324613;-5.81710672;146;105;80;1.000000
4.49449825;-1.29420662;-5.83616400;158;117;92;1.000000
3.16655540;-1.01126862;-5.83034611;148;124;99;1.000000
3.99588728;-1.69404316;-5.82799530;156;115;98;1.000000
4.03002787;0.27537864;-5.85151911;164;123;98;1.000000
4.28155327;-1.39300668;-5.83352613;118;85;61;1.000000
3.41613436;-0.74043232;-5.83527088;142;101;76;1.000000
3.56351519;-0.48364815;-5.83932447;138;97;72;1.000000
3.34077454;-1.56650293;-5.82498264;150;109;76;1.000000
4.05591106;-1.39743900;-5.83191681;146;105;80;1.000000
3.47943592;-0.53478563;-5.83813953;124;91;58;1.000000
3.95921659;-0.26230288;-5.84467220;136;119;94;1.000000
3.41573668;-1.32826710;-5.82831717;154;121;88;1.000000
4.04734087;-1.90241241;-5.82588673;145;112;95;1.000000
4.21895456;0.22311489;-5.85220480;146;113;88;1.000000
3.90339708;-1.50235152;-5.82962418;150;109;84;1.000000
4.37903976;-0.39442897;-5.84600687;150;109;84;1.000000
4.07932758;0.15500386;-5.85043573;156;115;90;1.000000
3.87392163;-1.58084297;-5.82849264;140;99;74;1.000000
3.07369280;-1.02480614;-5.82954550;142;109;92;1.000000
3.40145469;-2.19966269;-5.81791496;173;140;107;1.000000
4.10109806;-2.04588795;-5.82456112;157;124;91;1.000000
3.38672185;-1.54792464;-5.82551956;140;115;98;1.000000
4.47528362;-2.00324464;-5.82764721;148;115;98;1.000000
3.98085546;-1.98725939;-5.82442427;154;113;88;1.000000
4.07566929;0.14475864;-5.85028934;111;94;60;1.000000
4.11362219;-0.02869031;-5.84850025;156;115;90;1.000000
3.92966795;-1.03186917;-5.83536816;145;112;87;1.000000
4.55196905;-0.17086789;-5.84984398;158;117;92;1.000000
3.05464721;-0.59791696;-5.83446169;164;123;98;1.000000
3.40635991;-2.28938603;-5.81688786;165;132;99;1.000000
3.88914776;-2.12634850;-5.82214689;163;130;105;1.000000
3.34391022;-1.51110649;-5.82565975;138;105;80;1.000000
3.51496744;-1.07585323;-5.83198690;157;124;99;1.000000
3.81145716;-0.31102839;-5.84307671;150;117;92;1.000000
4.09218693;-0.28147465;-5.84536314;167;134;101;1.000000
3.95638466;0.17900284;-5.84987164;160;127;102;1.000000
4.01455164;-1.32264411;-5.83251619;135;110;85;1.000000
3.16589546;-2.18860793;-5.81641960;158;117;92;1.000000
4.17565632;-0.98336840;-5.83763933;145;120;104;1.000000
3.51959276;-0.44151747;-5.83951998;132;91;66;1.000000
3.25455379;-1.34256554;-5.82703590;154;113;88;1.000000
3.50007176;-2.03420711;-5.82055187;146;113;88;1.000000
4.02620411;-0.83744931;-5.83833361;148;115;91;1.000000
3.09613180;-0.93714982;-5.83073711;127;94;77;1.000000
4.55439234;-0.21999371;-5.84927988;158;117;92;1.000000
3.07029319;-0.67198175;-5.83369446;154;113;80;1.000000
2.92651224;-1.03702486;-5.82838535;168;134;100;1.000000
3.67269707;-0.76195168;-5.83678722;109;92;76;1.000000
3.76504469;-1.55453968;-5.82805204;157;124;99;1.000000
3.23277092;-1.94415426;-5.81977177;163;130;105;1.000000
3.98820925;-1.54963803;-5.82964993;142;101;76;1.000000
3.70162344;-0.22682080;-5.84331417;138;105;80;1.000000
4.59087467;-0.61131239;-5.84490395;150;109;84;1.000000
3.91855621;0.11699030;-5.84887648;146;113;88;1.000000
3.70219898;-2.00685215;-5.82226992;132;91;58;1.000000
4.26205301;-0.63535601;-5.84235096;138;97;64;1.000000
3.69218993;-1.46553266;-5.82860184;154;113;88;1.000000
3.08478880;-0.98608422;-5.83008003;150;117;92;1.000000
3.56130266;-0.39815420;-5.84032011;142;109;84;1.000000
3.02918768;-1.89261866;-5.81897688;138;105;80;1.000000
3.55157065;-0.73114896;-5.83631563;150;117;92;1.000000
4.45256615;-0.98566169;-5.83952332;148;115;90;1.000000
4.42811966;-0.37599331;-5.84656382;130;97;72;1.000000
3.41703176;-0.74144632;-5.83526516;142;101;76;1.000000
2.83842397;-1.25301445;-5.82522345;158;117;92;1.000000
4.00044012;-1.62133336;-5.82888651;150;109;84;1.000000
4.22444725;-2.02457786;-5.82566404;140;124;107;1.000000
4.27662230;-0.88669908;-5.83947945;154;113;88;1.000000
4.54557705;-0.62058067;-5.84448195;158;117;92;1.000000
3.05727172;-0.69349742;-5.83334970;132;115;91;1.000000
3.07832289;-1.90583777;-5.81915951;158;125;92;1.000000
4.25803566;-0.14443740;-5.84812832;137;112;95;1.000000
3.13055277;-2.36448598;-5.81409645;154;121;97;1.000000
4.44060183;-1.66551924;-5.83140135;156;123;98;1.000000
4.12735128;-0.21957253;-5.84633780;177;144;119;1.000000
4.24836302;-1.25641692;-5.83491278;153;120;95;1.000000
3.36414289;-2.02106524;-5.81976891;150;117;92;1.000000
3.56110334;-2.31141710;-5.81769514;161;120;95;1.000000
3.46386647;-0.37653089;-5.83990383;164;131;107;1.000000
3.61957121;-2.21264744;-5.81926632;148;115;91;1.000000
3.12499189;-0.74248111;-5.83323765;123;106;82;1.000000
3.71348476;-1.65505099;-5.82650805;181;148;123;1.000000
4.44142389;-1.23988605;-5.83644056;163;130;105;1.000000
3.21054864;-1.39440989;-5.82611942;148;115;91;1.000000
3.07769799;-1.11446846;-5.82851267;140;115;98;1.000000
3.56131840;-1.34566426;-5.82911634;158;117;92;1.000000
4.28063631;-1.72622633;-5.82957983;150;109;84;1.000000
3.90983462;-2.23860812;-5.82096195;158;117;92;1.000000
4.56837511;-1.29515994;-5.83666229;102;85;68;1.000000
3.42887545;-2.00017715;-5.82046270;162;145;111;1.000000
3.06768084;-0.68349856;-5.83353996;150;117;92;1.000000
3.73934698;-0.38623655;-5.84169006;146;105;80;1.000000
3.21167660;-1.70272207;-5.82248163;138;105;80;1.000000
4.23845482;-0.71093082;-5.84129429;131;98;74;1.000000
3.98991013;-1.00133967;-5.83614492;125;109;92;1.000000
3.25461221;-1.51514888;-5.82499552;167;134;109;1.000000
4.62067890;-1.92967319;-5.82952070;171;130;105;1.000000
4.63264322;-1.72694850;-5.83200026;168;134;100;1.000000
3.13576841;-1.89074111;-5.81973410;146;105;72;1.000000
4.42053938;-2.15470076;-5.82547855;131;107;90;1.000000
4.47460365;-0.29558048;-5.84783554;142;109;84;1.000000
3.88183975;-0.63128716;-5.83977509;146;105;80;1.000000
4.49970722;-0.52762812;-5.84526491;142;109;92;1.000000
4.59297705;-1.31432581;-5.83660555;154;121;97;1.000000
4.13501072;0.02389828;-5.84926987;154;121;97;1.000000
3.43264103;-1.08419657;-5.83132029;142;101;76;1.000000
4.37922049;-0.56623805;-5.84397650;123;98;82;1.000000
3.64461064;-1.18973851;-5.83153439;150;109;84;1.000000
3.51435423;-1.61664701;-5.82558775;158;117;92;1.000000
4.44958115;-1.25107431;-5.83636427;148;115;82;1.000000
3.60006046;-1.04727507;-5.83291197;124;91;74;1.000000
4.04603052;-2.08799624;-5.82368279;142;109;84;1.000000
4.34165239;-1.85317445;-5.82849932;134;92;68;1.000000
3.89517736;-0.90479529;-5.83663273;149;124;99;1.000000
4.18878031;0.29668656;-5.85286665;167;125;101;1.000000
3.64162707;-1.80578232;-5.82422924;146;113;88;1.000000
3.50623751;-0.28257182;-5.84130716;158;117;92;1.000000
3.48777342;-0.56713843;-5.83781433;134;101;76;1.000000
3.64982772;-0.68097109;-5.83758688;107;91;74;1.000000
3.47940063;-1.58505487;-5.82572031;132;99;74;1.000000
3.52394319;-1.84939921;-5.82290173;111;94;77;1.000000
4.20640898;-0.36692816;-5.84514093;150;109;84;1.000000
3.43844175;-1.77974105;-5.82313538;146;121;97;1.000000
4.43309450;-1.71259284;-5.83079290;131;115;98;1.000000
3.10270119;-0.89472049;-5.83128405;132;99;74;1.000000
4.12523651;-0.73114944;-5.84027433;130;97;72;1.000000
3.79488754;-1.00547981;-5.83475065;154;121;97;1.000000
3.58122158;-1.97956562;-5.82175779;157;124;91;1.000000
3.74912786;-0.93982029;-5.83521128;158;117;84;1.000000
3.28821635;-1.15324485;-5.82950735;148;115;91;1.000000
3.21308923;-0.60659730;-5.83545256;150;109;84;1.000000
4.00231838;0.33295280;-5.85200834;146;105;80;1.000000
3.19674540;-1.28603637;-5.82730579;123;98;73;1.000000
4.01444817;0.04998793;-5.84874630;149;124;99;1.000000
2.87887979;-1.17225850;-5.82645750;164;131;98;1.000000
3.88131881;-1.41167045;-5.83054352;146;105;80;1.000000
3.20853090;-0.91380918;-5.83178854;157;124;99;1.000000
3.22281599;-0.57274610;-5.83591986;156;123;98;1.000000
4.13830566;-2.01010561;-5.82524109;156;123;98;1.000000
3.80028772;-1.43956316;-5.82965469;135;110;85;1.000000
3.83438730;-0.41083592;-5.84205484;155;121;104;1.000000
3.93388128;-1.13750362;-5.83414888;138;105;80;1.000000
3.61707830;-0.94534671;-5.83423471;134;101;84;1.000000
4.28158283;-1.04551208;-5.83763552;142;101;68;1.000000
3.40140247;-1.51096177;-5.82605839;140;107;82;1.000000
3.86790037;-1.33010507;-5.83141565;148;115;91;1.000000
3.76250505;-0.47910807;-5.84075117;138;97;72;1.000000
3.76112437;-0.36264646;-5.84211922;146;113;88;1.000000
3.66664553;-2.09579563;-5.82097292;150;117;92;1.000000
4.23819351;0.29247111;-5.85315800;150;117;92;1.000000
3.37263989;-0.94173485;-5.83259058;140;107;82;1.000000
3.48262405;-1.30997300;-5.82899523;154;121;88;1.000000
4.12944269;0.39309448;-5.85359669;150;109;84;1.000000
3.36768055;-1.32494402;-5.82802486;150;109;84;1.000000
3.12756085;-0.54052997;-5.83564377;156;123;98;1.000000
4.50765133;-1.89793456;-5.82911587;146;113;88;1.000000
3.27703357;-2.05518246;-5.81876469;134;101;76;1.000000
4.42813730;-1.10739684;-5.83791494;163;130;97;1.000000
4.19412613;-0.54067791;-5.84300184;134;101;76;1.000000
3.45663309;-1.00448108;-5.83242798;148;107;82;1.000000
3.45686913;-1.34407771;-5.82841444;127;102;77;1.000000
3.00779104;-1.00206697;-5.82935953;134;101;76;1.000000
3.99210501;-0.33893341;-5.84399319;148;115;90;1.000000
3.01126504;-0.77174473;-5.83210707;127;110;94;1.000000
3.38945341;-1.89792943;-5.82139969;146;113;88;1.000000
4.00992632;-1.35367298;-5.83211708;164;123;98;1.000000
3.69612098;0.00041406;-5.84596348;130;97;72;1.000000
3.49993849;-1.76817679;-5.82369661;128;112;95;1.000000
4.26194668;-1.20314324;-5.83563614;171;130;97;1.000000
4.37511158;-0.29692677;-5.84713268;142;101;76;1.000000
3.79723024;-0.37923381;-5.84217215;146;113;88;1.000000
4.26902151;-0.87550545;-5.83955908;130;105;88;1.000000
4.07985592;-1.93492115;-5.82572651;154;121;88;1.000000
4.49497128;-0.06225370;-5.85073519;142;125;101;1.000000
4.03438663;-1.73085737;-5.82782555;138;105;88;1.000000
3.85653949;-1.98435497;-5.82360077;148;107;82;1.000000
3.30975628;-0.62419647;-5.83591175;172;138;104;1.000000
4.06206703;0.34247550;-5.85253334;146;113;88;1.000000
4.12504911;-0.42897964;-5.84384584;138;97;72;1.000000
3.83575797;-0.11429133;-5.84557056;142;117;92;1.000000
2.87316561;-1.63771868;-5.82091427;156;115;82;1.000000
3.55144739;-1.71679664;-5.82465935;132;107;82;1.000000
3.10045457;-1.52739298;-5.82378721;148;115;90;1.000000
3.91293311;0.13915087;-5.84910011;158;125;92;1.000000
4.44936943;-1.49832749;-5.83343887;150;109;84;1.000000
3.66120505;-0.62549508;-5.83832121;142;109;84;1.000000
4.39474297;-1.88668871;-5.82846975;142;109;84;1.000000
3.81909633;-0.19728404;-5.84447432;140;107;82;1.000000
3.99550056;-0.78430033;-5.83875036;134;109;92;1.000000
4.20451641;-0.51898462;-5.84332991;142;101;76;1.000000
4.61555433;-1.24298096;-5.83760500;140;107;82;1.000000
3.49986243;-0.70080554;-5.83631754;140;115;98;1.000000
3.60398817;-0.68617916;-5.83720875;132;91;58;1.000000
3.38283777;-0.82227015;-5.83407402;142;101;76;1.000000
3.43534279;-1.90903687;-5.82158470;140;107;82;1.000000
3.98540831;-1.52172303;-5.82996082;140;115;98;1.000000
4.42085648;-2.06529570;-5.82653809;134;92;68;1.000000
4.05679512;-0.00156911;-5.84842873;142;101;76;1.000000
4.43569517;-0.73628074;-5.84235573;163;130;97;1.000000
4.25126123;-1.29240847;-5.83450651;147;123;98;1.000000
3.28509283;-1.16896725;-5.82929945;153;120;95;1.000000
4.45964241;-1.41739774;-5.83446693;156;115;90;1.000000
4.36977673;-1.34415102;-5.83471298;142;109;84;1.000000
3.32772279;-0.44470236;-5.83815813;158;125;101;1.000000
3.66439962;-1.15567517;-5.83207417;142;109;84;1.000000
3.67887092;-2.29205370;-5.81873608;146;113;88;1.000000
4.29406881;0.19622068;-5.85240507;123;90;73;1.000000
3.23126197;-1.59761143;-5.82385921;142;109;84;1.000000
3.08489370;-1.25595641;-5.82688951;145;128;104;1.000000
3.31713867;-0.63415700;-5.83584499;172;138;104;1.000000
4.11506367;-2.03426671;-5.82479477;163;130;97;1.000000
3.84558773;-1.72340047;-5.82661152;146;105;88;1.000000
4.00609350;-1.82023203;-5.82657385;137;104;79;1.000000
4.29745817;-1.73889279;-5.82954597;158;117;92;1.000000
4.31636095;-0.09253129;-5.84914446;139;106;82;1.000000
4.30712128;-0.14023623;-5.84851646;163;130;105;1.000000
3.92306805;-1.15319037;-5.83388853;138;97;72;1.000000
4.02433872;-1.84481525;-5.82640886;123;98;73;1.000000
3.71103191;-0.98604631;-5.83440208;132;91;58;1.000000
3.51303339;-1.35685229;-5.82865047;167;134;101;1.000000
3.85285616;-0.13634297;-5.84542751;154;121;88;1.000000
3.92287493;-1.66546035;-5.82782984;148;123;98;1.000000
3.98967361;-0.42290178;-5.84298325;154;121;88;1.000000
4.61838150;-1.87535679;-5.83014727;171;138;105;1.000000
4.15221310;-1.68462801;-5.82918549;132;99;74;1.000000
4.36852455;-1.85707760;-5.82863903;135;110;85;1.000000
3.19129419;-0.53951067;-5.83609533;156;123;98;1.000000
3.67726731;-1.07634664;-5.83310080;156;123;98;1.000000
4.06366634;-2.22029781;-5.82224035;138;105;80;1.000000
3.98146701;0.01526737;-5.84810829;142;101;76;1.000000
4.12571049;-1.31857133;-5.83333111;163;121;88;1.000000
3.79669785;-1.90223598;-5.82415915;137;112;95;1.000000
3.61056423;-2.27304697;-5.81848955;150;117;92;1.000000
3.93399763;-1.80116534;-5.82630205;158;117;92;1.000000
3.72436690;-0.13252461;-5.84458637;142;109;76;1.000000
3.38195586;-2.11973429;-5.81872559;157;124;91;1.000000
3.87332034;-1.65491748;-5.82761240;140;107;82;1.000000
3.98365378;-0.36112958;-5.84367228;148;107;82;1.000000
4.26675415;-0.23953517;-5.84706402;173;140;115;1.000000
2.98937464;-1.97987461;-5.81766987;145;120;95;1.000000
4.36876774;-0.45430556;-5.84522820;148;107;74;1.000000
4.30272484;0.28561574;-5.85352182;146;105;80;1.000000
3.21673298;-1.63835061;-5.82327747;131;107;90;1.000000
4.34532166;-0.64898342;-5.84276438;137;104;79;1.000000
3.75629020;-1.43411946;-5.82941532;140;107;82;1.000000
4.38145590;-0.08873604;-5.84963846;132;115;91;1.000000
3.35640001;-0.85978389;-5.83344746;115;82;57;1.000000
3.38337541;-0.55281425;-5.83726358;163;130;97;1.000000
3.77233696;-2.17607641;-5.82075310;142;109;84;1.000000
3.95867538;0.08636592;-5.84879160;138;97;72;1.000000
2.86487508;-0.70727766;-5.83185911;146;113;88;1.000000
3.57368946;-2.02063751;-5.82121992;148;107;82;1.000000
4.37260532;-1.81604886;-5.82915211;156;123;98;1.000000
4.29649544;0.10305169;-5.85131979;154;113;88;1.000000
3.04422474;-2.16966486;-5.81580448;130;97;64;1.000000
4.04340935;-1.72809863;-5.82792044;138;105;88;1.000000
3.34486294;-0.52016455;-5.83738375;171;130;105;1.000000
4.50837421;-1.87350607;-5.82940960;146;105;80;1.000000
3.25989819;-1.16395652;-5.82918501;156;123;98;1.000000
3.86897039;-1.45408535;-5.82995749;146;113;88;1.000000
4.40345192;-1.46822619;-5.83347797;127;102;77;1.000000
3.33112335;-1.86901999;-5.82133913;154;121;88;1.000000
3.67306352;-0.41661495;-5.84087324;134;101;76;1.000000
3.87451243;-0.52724683;-5.84095526;146;105;80;1.000000
4.36522865;-1.23258352;-5.83600044;131;106;82;1.000000
3.68246603;-1.57699132;-5.82721663;142;109;84;1.000000
4.42602921;-1.48263383;-5.83346319;150;109;92;1.000000
3.97822905;-0.97074443;-5.83642626;131;107;90;1.000000
2.85279226;-0.73432255;-5.83145571;140;124;99;1.000000
2.92232800;-1.73620391;-5.82008886;134;92;59;1.000000
2.82880211;-1.06268382;-5.82740784;146;113;80;1.000000
4.28678417;0.15355369;-5.85185051;150;117;92;1.000000
3.66463137;-0.51491791;-5.83965254;142;101;76;1.000000
3.68014336;-1.17710030;-5.83192968;158;125;92;1.000000
4.08347893;-0.69216251;-5.84044647;142;109;84;1.000000
2.87809682;-1.08772147;-5.82745171;163;130;97;1.000000
4.24988461;-1.39685440;-5.83326197;146;113;88;1.000000
2.94337797;-1.46351910;-5.82345819;154;121;88;1.000000
3.94949627;-1.46494555;-5.83038425;132;99;74;1.000000
3.05237389;-1.49455595;-5.82384396;132;107;82;1.000000
3.23482108;-1.95530570;-5.81965399;173;140;107;1.000000
3.21160364;-0.70094430;-5.83432674;157;124;91;1.000000
2.91480947;-1.63334775;-5.82125330;158;117;92;1.000000
4.19254971;-1.00190842;-5.83753681;146;105;80;1.000000
3.28821659;-1.42607939;-5.82628107;121;105;80;1.000000
3.21359730;-1.82328475;-5.82106876;146;113;88;1.000000
4.01993036;0.07994196;-5.84913826;158;117;92;1.000000
4.17263460;-1.33312690;-5.83348322;148;115;82;1.000000
3.81758356;-0.55721903;-5.84020758;134;101;76;1.000000
3.15224481;-1.65562582;-5.82262850;145;112;87;1.000000
3.81422949;-0.97480464;-5.83524656;146;113;88;1.000000
3.69160986;-1.23178470;-5.83136177;163;130;105;1.000000
3.85980606;-0.91147810;-5.83630991;157;124;99;1.000000
3.45202780;-1.31716657;-5.82869911;148;107;82;1.000000
4.60570240;-2.00457263;-5.82853127;163;130;97;1.000000
3.53895640;-0.62495518;-5.83748436;115;82;57;1.000000
3.34545422;-1.67361796;-5.82374859;146;105;72;1.000000
4.60738707;-1.87362719;-5.83009148;167;134;101;1.000000
2.92657495;-1.85102940;-5.81876040;132;99;74;1.000000
3.74763727;-1.78920889;-5.82515717;156;115;82;1.000000
4.21426821;0.29602522;-5.85303450;146;105;80;1.000000
3.29065514;-1.31821012;-5.82757282;145;104;79;1.000000
4.11340761;-1.19462907;-5.83471155;175;142;109;1.000000
3.54747176;-1.70562792;-5.82476425;132;107;82;1.000000
4.55931854;-0.90550238;-5.84120750;148;115;90;1.000000
4.11451387;-2.02207756;-5.82493544;163;130;97;1.000000
3.52719998;-1.90888882;-5.82222080;148;115;91;1.000000
4.26093817;-0.59553504;-5.84281445;163;130;97;1.000000
3.52189422;-2.27484894;-5.81785679;150;117;92;1.000000
4.19121456;0.32171562;-5.85317898;150;117;92;1.000000
3.76573443;-1.21854115;-5.83202982;158;125;92;1.000000
4.01886511;-0.03745716;-5.84774303;140;107;82;1.000000
4.24099112;-0.46070451;-5.84427071;167;134;101;1.000000
4.44899607;-1.89798427;-5.82871056;142;101;76;1.000000
3.47430086;-1.78092492;-5.82336903;154;121;88;1.000000
3.72970033;-0.13043584;-5.84464788;138;105;72;1.000000
4.40896893;0.08399509;-5.85187101;142;109;84;1.000000
4.13827991;-1.33665919;-5.83320427;158;117;84;1.000000
3.29932117;-1.59004807;-5.82441854;158;117;92;1.000000
4.01347208;0.28903949;-5.85156631;142;101;76;1.000000
3.78664637;0.08569023;-5.84759665;146;105;80;1.000000
3.61737609;-0.68078798;-5.83736467;134;92;68;1.000000
3.29444027;-2.12484455;-5.81806087;138;97;72;1.000000
3.66411233;-0.12418760;-5.84426928;146;113;88;1.000000
3.16135287;-0.64776033;-5.83460855;142;109;84;1.000000
3.75576544;0.08516049;-5.84737730;140;115;90;1.000000
3.44124198;-2.33953667;-5.81653547;165;132;107;1.000000
4.51314592;-0.44817796;-5.84629679;164;123;98;1.000000
4.26551199;-2.00946355;-5.82612610;118;102;85;1.000000
4.26003647;-1.39812994;-5.83331728;140;107;82;1.000000
3.35880995;-2.03314495;-5.81958961;140;107;82;1.000000
4.40680599;-0.26646066;-5.84771204;132;107;82;1.000000
4.24670792;-0.96807224;-5.83831024;163;130;97;1.000000
4.20099068;-1.63525391;-5.83010626;142;109;92;1.000000
4.28740883;-0.29609555;-5.84653759;150;109;76;1.000000
4.06187105;-2.17554116;-5.82275677;137;104;79;1.000000
4.33298826;-0.56418192;-5.84368181;150;109;84;1.000000
3.18188071;-0.54661477;-5.83594608;161;127;93;1.000000
3.57232070;-2.20164251;-5.81907034;167;134;109;1.000000
3.83435106;-0.24660796;-5.84399605;156;123;98;1.000000
4.38257599;-0.91195321;-5.83991194;140;115;90;1.000000
2.98122954;-1.39028394;-5.82458591;165;124;91;1.000000
3.69478035;-0.95313001;-5.83467865;150;117;92;1.000000
3.07456279;-0.76927775;-5.83257294;150;109;84;1.000000
4.35540962;-1.70191097;-5.83038330;150;117;92;1.000000
3.83675694;-1.67100656;-5.82716942;134;101;76;1.000000
3.96734190;-0.10280590;-5.84661484;142;101;76;1.000000
3.61645055;-1.21037459;-5.83109617;138;97;72;1.000000
3.12501812;-1.83440626;-5.82032633;150;109;84;1.000000
2.85118723;-1.43203521;-5.82319450;150;109;92;1.000000
4.48070049;-0.14729670;-5.84963083;158;117;92;1.000000
4.01743984;-1.61910117;-5.82903051;158;117;92;1.000000
4.28656578;-1.03452957;-5.83780003;138;97;72;1.000000
3.48085022;-1.61762905;-5.82534504;148;115;90;1.000000
3.57626200;-1.37270856;-5.82889938;124;107;82;1.000000
4.11729050;0.36228549;-5.85314894;167;134;101;1.000000
4.54514503;-1.11051989;-5.83868551;135;102;77;1.000000
3.42147875;-0.92653209;-5.83310747;130;105;88;1.000000
4.08123970;-1.81668568;-5.82713413;121;105;80;1.000000
4.29335785;-1.93376923;-5.82721329;135;102;77;1.000000
2.97196126;-0.87583113;-5.83060503;140;107;90;1.000000
3.33491063;-2.16918588;-5.81781578;142;109;84;1.000000
3.65452003;-1.42488933;-5.82882214;167;125;92;1.000000
3.46154857;-0.65574729;-5.83658600;165;140;116;1.000000
3.74128485;-1.62127244;-5.82709885;130;97;72;1.000000
4.10129690;-0.32490098;-5.84491301;158;117;92;1.000000
3.06501603;-0.71949553;-5.83309555;150;117;92;1.000000
4.29373121;-1.80051160;-5.82879162;164;131;107;1.000000
4.40421677;-2.16699123;-5.82522058;163;130;97;1.000000
3.04332542;-1.93118620;-5.81861782;119;102;68;1.000000
3.90642047;-0.12169135;-5.84597111;146;105;80;1.000000
3.26808214;-0.88099188;-5.83258724;150;117;92;1.000000
3.02477646;-0.88879526;-5.83081627;146;113;88;1.000000
3.77575135;-0.32836071;-5.84262514;154;121;97;1.000000
3.02207494;-0.62258017;-5.83394527;154;113;88;1.000000
3.60369873;-0.19981760;-5.84295797;158;117;92;1.000000
3.63752675;-1.29845738;-5.83020020;176;143;118;1.000000
4.26133585;-1.46204293;-5.83257055;138;105;80;1.000000
4.29153442;-2.06834340;-5.82560968;150;117;92;1.000000
3.89259124;-0.54848325;-5.84082890;158;117;92;1.000000
4.05492353;0.35089630;-5.85258389;146;113;88;1.000000
3.60448313;-1.58815312;-5.82654667;150;109;84;1.000000
2.99987936;-1.07479656;-5.82844496;135;110;85;1.000000
3.43793106;-2.35895205;-5.81628275;134;117;92;1.000000
3.98768783;-1.17958927;-5.83402205;142;109;84;1.000000
4.50744534;-1.36343598;-5.83543491;171;138;105;1.000000
4.36693430;-2.11500597;-5.82557774;164;123;98;1.000000
3.42612362;-0.67617917;-5.83610010;163;130;97;1.000000
4.11621857;-1.62104547;-5.82968903;138;105;80;1.000000
4.37034321;-1.18062544;-5.83665037;165;132;99;1.000000
4.30350494;-1.50145030;-5.83239555;142;101;76;1.000000
3.77539921;-1.59378099;-5.82765961;142;109;84;1.000000
4.05637360;-0.17058487;-5.84642744;150;109;84;1.000000
3.58601260;-2.21033955;-5.81906176;150;117;92;1.000000
4.02344036;-0.68881226;-5.84007215;117;92;76;1.000000
3.89797783;0.08563118;-5.84836388;146;113;88;1.000000
4.02698898;-2.23089504;-5.82186222;134;101;76;1.000000
3.24394751;-1.07080519;-5.83017635;150;109;92;1.000000
3.77251554;-2.24714279;-5.81991339;148;115;91;1.000000
4.54110575;-1.22669148;-5.83728361;171;130;97;1.000000
3.39289021;-0.24185020;-5.84100628;148;115;90;1.000000
4.14662075;-1.32271969;-5.83342648;157;115;82;1.000000
3.42933750;-0.25758019;-5.84107208;138;97;64;1.000000
2.92646456;-1.50591815;-5.82284021;173;140;115;1.000000
4.51056290;-1.69751525;-5.83150578;148;115;90;1.000000
2.99164963;-1.81947815;-5.81958246;150;109;84;1.000000
4.21593714;0.42222029;-5.85453796;146;113;88;1.000000
4.57703400;-1.21294403;-5.83769417;146;105;80;1.000000
3.19770670;-1.72931421;-5.82207060;138;121;87;1.000000
4.07259989;0.35059506;-5.85270214;154;113;88;1.000000
2.97846889;-1.02133989;-5.82892942;158;125;92;1.000000
3.08359289;-1.13296485;-5.82833481;165;140;116;1.000000
3.12108088;-0.76826942;-5.83290577;142;109;84;1.000000
3.00252700;-1.17897916;-5.82723141;148;124;99;1.000000
2.98744822;-2.03312254;-5.81702709;142;109;84;1.000000
3.85746717;-1.84797025;-5.82522011;156;123;98;1.000000
3.16993999;-1.61233830;-5.82326221;130;97;72;1.000000
3.00235128;-1.81571937;-5.81970072;150;109;84;1.000000
4.13609505;-1.15765238;-5.83530569;140;107;82;1.000000
3.50493097;-1.15314853;-5.83100367;158;117;92;1.000000
3.97702789;-1.83796954;-5.82616329;140;124;99;1.000000
3.81528044;-1.86168098;-5.82476711;154;121;97;1.000000
3.33750963;-1.12086034;-5.83022976;148;115;98;1.000000
3.44843102;-1.50167143;-5.82649231;150;109;84;1.000000
4.51209307;-0.62924016;-5.84414864;146;113;88;1.000000
4.19317865;-0.31578046;-5.84565449;146;105;80;1.000000
4.32058716;-0.92300874;-5.83935356;132;107;82;1.000000
