x;y;z;R;G;B;semantic_label
0.29977027;-2.38988423;-4.47343254;163;130;97;1.000000
-1.39623702;-2.38390946;-3.80041385;154;130;105;1.000000
-2.77797556;-1.74076724;-4.14320850;187;154;146;2.000000
0.91231561;-2.39899230;-4.32294655;132;91;58;1.000000
5.80582952;-2.40475726;-6.90601492;148;115;98;1.000000
5.68768215;-1.91604924;-2.44321966;84;84;84;3.000000
-0.70559371;-0.04594372;-5.87809992;185;185;185;0.000000
2.83450556;-0.15258943;-2.11140156;221;221;221;0.000000
4.23311615;-2.44515181;-3.75539660;156;123;98;1.000000
7.75213385;-1.37382269;-5.25011778;157;165;173;2.000000
4.73263359;-2.43788242;-4.45188427;142;101;76;1.000000
6.65260124;-0.14479965;-4.79286766;227;227;227;0.000000
5.93588591;-1.91396916;-6.15329838;91;66;58;5.000000
1.41043806;-2.42604351;-3.13418698;190;157;132;1.000000
-0.23711213;-2.42256355;-2.36193657;140;107;82;1.000000
1.34457624;-2.41184783;-3.86934733;164;131;107;1.000000
6.22178030;-0.12773111;-5.47586632;224;224;224;0.000000
-2.40733576;-2.40341687;-2.13235664;173;140;107;1.000000
6.52183676;-2.48804402;-2.75586557;143;110;85;1.000000
0.43937999;-0.13170685;-1.84434366;215;215;215;0.000000
6.56393147;-2.18135595;-6.01832533;92;92;92;3.000000
1.44509661;-2.39530587;-4.82997990;158;117;92;1.000000
0.20462935;-0.04589982;-6.41777229;227;227;227;0.000000
-1.98055613;-2.39897442;-2.62825346;163;121;88;1.000000
-2.79199743;-0.89864582;-6.70258379;158;167;175;2.000000
3.65705109;-2.42036200;-4.76698208;157;132;116;1.000000
7.75231504;-1.74628627;-2.92757273;158;167;175;2.000000
-1.86746895;-2.32157016;-6.94550753;142;101;76;1.000000
-0.28519613;-0.12388732;-1.84608459;207;207;207;0.000000
4.62428713;-2.39679694;-6.63472939;154;113;88;1.000000
5.01542568;-1.94939482;-3.69065261;84;68;59;5.000000
-1.81933630;-2.33793592;-6.07521296;163;130;105;1.000000
5.10943794;-2.42152882;-5.57194138;151;118;94;1.000000
3.41546941;-2.18878794;-2.95627308;146;105;88;3.000000
0.14686805;-2.34762454;-6.70034313;150;109;84;1.000000
7.57294226;-2.46264577;-4.77103329;158;117;92;1.000000
6.37936926;-2.07520366;-7.09203100;163;138;130;2.000000
4.64053202;-0.17649512;-1.86469269;193;193;193;0.000000
6.95888138;-2.41157651;-7.07533026;173;140;132;2.000000
6.40782595;-0.13678308;-5.08860540;224;224;224;0.000000
6.47359562;-0.12637118;-5.69917965;227;227;227;0.000000
-1.34534740;-0.79256958;-7.05202246;156;164;173;2.000000
5.20961094;-2.45024872;-4.05679750;158;125;101;1.000000
-0.91670018;-2.39317250;-3.57482100;158;117;92;1.000000
6.77871609;-1.66299641;-7.08562994;157;165;173;2.000000
-0.42090067;-0.04346388;-6.18231010;223;223;223;0.000000
4.00582409;-2.38630247;-6.83895302;156;115;90;1.000000
7.62627745;-2.46772146;-4.52375603;150;109;84;1.000000
0.06188886;-2.33899403;-7.12752533;148;107;82;1.000000
4.81779194;-1.95616794;-3.20205808;62;54;54;5.000000
-2.20166755;-0.07239319;-3.54256558;206;206;206;0.000000
5.49879122;-2.22835040;-2.66196775;107;66;58;3.000000
-0.39992011;-2.37657809;-4.79112720;140;123;98;1.000000
1.47063887;-1.14179993;-7.06451273;156;164;173;2.000000
1.25629854;-2.42219353;-3.25371480;154;113;88;1.000000
-1.00589705;-2.33036709;-6.97102451;138;105;80;1.000000
1.65757394;-0.08257101;-5.26167488;224;224;224;0.000000
-2.76734924;-0.87852848;-3.80598068;94;118;102;2.000000
5.14855576;-0.12964791;-4.73711729;221;221;221;0.000000
-2.79663682;-1.44383156;-6.08765125;158;167;175;2.000000
5.60824585;-2.22139168;-2.47731400;109;109;109;3.000000
0.13330105;-2.30682683;-7.30998802;187;154;146;2.000000
7.74423647;-1.98429346;-6.09409714;168;143;135;2.000000
3.91420817;-2.47458816;-1.95504618;131;107;90;1.000000
1.57271302;-2.36611915;-6.49575424;158;125;92;1.000000
5.21843910;-1.52748299;-7.12739134;181;181;181;2.000000
4.41916418;-2.45039248;-3.57994294;138;105;80;1.000000
2.68614030;-2.44636679;-2.77383947;106;90;65;1.000000
3.88400650;-2.43201876;-4.26506519;163;130;105;1.000000
-2.62192273;-2.38507318;-3.01300144;164;123;98;1.000000
6.85384178;-2.42114067;-6.62574911;148;115;90;1.000000
5.12223482;-2.41624641;-5.86856747;153;120;95;1.000000
6.23914051;-0.14126149;-4.74311924;221;221;221;0.000000
1.66835260;-0.10907723;-3.81247735;210;210;210;0.000000
-1.90258551;-2.39037561;-3.14648056;150;109;92;1.000000
-1.86266184;-0.02844288;-6.15615988;221;221;221;0.000000
3.12775064;-2.43238854;-3.79456401;138;105;80;1.000000
-2.76911116;-0.88027620;-4.79464245;94;118;102;2.000000
-2.58944321;-0.02843550;-5.72753429;227;227;227;0.000000
1.97956669;-1.56965184;-7.07322598;156;164;173;2.000000
6.75578737;-2.45741034;-4.57615614;132;99;74;1.000000
-2.76133180;-2.32678175;-6.13169813;161;120;95;1.000000
-2.77548265;-1.62370491;-3.98199654;94;118;102;2.000000
6.93721819;-0.18185280;-2.92613602;204;204;204;0.000000
7.75934982;-1.22577262;-2.03702068;154;163;171;2.000000
7.26828527;-2.49844480;-2.62533426;148;107;74;1.000000
5.71058512;-2.23262405;-2.69282484;80;80;80;3.000000
5.88630438;-0.13690686;-4.77394390;210;210;210;0.000000
-0.40175688;-2.35360265;-6.05168819;145;120;95;1.000000
6.63467216;-0.13446090;-5.35001659;219;219;219;0.000000
-0.08051743;-0.08195713;-7.10918617;215;215;215;2.000000
7.75793982;-0.75228161;-5.65710354;156;164;173;2.000000
4.54567337;-1.07924032;-7.12353516;146;146;154;2.000000
4.33020115;-2.42872453;-4.71216011;128;95;71;1.000000
7.75472784;-1.37235510;-3.78638363;156;164;173;2.000000
6.38841200;-0.12993637;-5.45310974;147;147;147;0.000000
0.36766884;-0.03521989;-7.10046864;221;221;221;0.000000
7.75016880;-1.75540686;-4.09146976;157;165;173;2.000000
6.99935102;-0.20263171;-1.82176733;227;227;227;0.000000
1.37749529;-2.44225550;-2.23113012;148;115;90;1.000000
7.75067711;-1.21424103;-7.02671099;154;163;171;2.000000
5.41485786;-0.13269033;-4.72722101;205;205;205;0.000000
-1.40361178;-1.85347795;-4.02888441;216;167;142;5.000000
-2.78181934;-0.66574639;-2.31350231;156;164;173;2.000000
6.82807493;-2.43894577;-5.63279390;153;128;104;1.000000
-0.11854042;-1.91215754;-7.07458639;154;130;121;2.000000
4.70646334;-2.43940806;-4.35275936;148;107;82;1.000000
1.66676188;-0.05482165;-6.79089832;224;224;224;0.000000
1.77961886;-2.37997389;-5.86174726;124;107;82;1.000000
-1.54284489;-2.37831783;-4.02091837;158;125;101;1.000000
4.10167265;-2.45586443;-3.09071112;158;117;92;1.000000
3.18077469;-2.37698221;-6.85531282;164;123;98;1.000000
6.98703527;-2.44158435;-5.58175087;164;131;107;1.000000
7.31744385;-0.11829515;-6.64076090;212;212;212;0.000000
-2.77278423;-1.32636082;-4.22159433;94;118;102;2.000000
1.97234285;-2.41296244;-4.17646885;140;107;82;1.000000
-2.76400113;-0.15605615;-6.15008497;215;215;215;2.000000
3.68915987;-2.47084808;-2.02710390;154;113;88;1.000000
5.45115232;-2.45414042;-3.98561406;155;121;104;1.000000
-1.31104076;-2.39215159;-3.39811397;125;101;84;1.000000
-1.12731016;-2.33861947;-6.44620752;125;92;68;1.000000
-2.79237008;-1.62553871;-2.58337736;156;164;173;2.000000
5.32521963;-0.17387332;-2.41282415;222;222;222;0.000000
-1.26878870;-2.37963653;-4.11025906;168;134;100;1.000000
-0.36382896;-0.06293081;-5.14701319;219;219;219;0.000000
-2.78627443;-0.37002781;-6.61442995;227;236;236;2.000000
-2.76968670;-1.10591793;-3.77695584;98;123;107;2.000000
0.43503594;-2.38281488;-4.93938494;163;130;105;1.000000
3.31650567;-0.07791047;-6.49681234;187;187;187;0.000000
3.41784596;-2.03254199;-5.38734674;80;80;80;5.000000
0.13797766;-1.84950578;-5.67360163;71;71;71;3.000000
3.12535548;-1.91666889;-3.25832939;175;125;101;5.000000
5.10971785;-2.41417742;-5.97429466;157;132;107;1.000000
0.76479793;-1.46530807;-7.34718418;222;222;222;2.000000
2.64328289;-2.43607497;-3.30971670;134;101;84;1.000000
-2.15275431;-2.11511350;-3.50721288;138;113;80;3.000000
-2.74091458;-0.16425373;-4.03908825;173;173;173;2.000000
6.39975071;-0.12855051;-5.53592253;215;215;215;0.000000
1.53091216;-2.27324629;-7.08467340;151;127;118;2.000000
3.13602090;-2.45437026;-2.60115480;156;115;90;1.000000
4.70289421;0.15240003;-4.43052578;223;223;223;0.000000
5.40893793;-2.47396755;-2.87193775;158;125;101;1.000000
5.76141071;-1.91378534;-6.06038666;62;54;54;5.000000
-2.78357530;-0.69315141;-3.14707661;156;164;173;2.000000
-2.78717136;-1.00471437;-6.59467793;255;249;224;2.000000
-1.46094882;-0.04589701;-5.43479967;201;201;201;0.000000
1.27551794;-2.42197013;-3.27718544;150;109;84;1.000000
6.24287128;-0.13071083;-5.32467890;224;224;224;0.000000
3.31969380;-2.38585901;-6.45280457;150;117;92;1.000000
-0.01995582;-0.05024410;-6.04664755;219;219;219;0.000000
2.64503932;-0.98572969;-7.11203766;148;148;156;2.000000
7.76648140;-0.38641679;-2.98994970;156;164;173;2.000000
-1.62847316;-2.32937288;-6.65810537;142;101;68;1.000000
1.72125852;-1.85382581;-5.88043690;175;125;101;5.000000
-0.17131212;-2.42320156;-2.36579180;163;130;97;1.000000
4.29508352;-2.47935057;-1.91884232;150;117;92;1.000000
7.73595238;-1.75983036;-6.67224026;157;132;124;2.000000
7.76201773;-0.74140394;-3.40852928;156;164;173;2.000000
-2.79135466;-1.35277510;-3.63177228;158;167;175;2.000000
2.06370115;-2.42534423;-3.55508780;150;109;84;1.000000
-0.47620147;-2.37749434;-4.69575024;142;109;84;1.000000
5.42356443;-2.46109176;-3.58762622;130;105;88;1.000000
3.89357519;-2.44864941;-3.36098123;134;92;59;1.000000
-1.97151899;-2.13527346;-3.75542498;117;117;117;3.000000
0.68110347;-0.86981779;-7.35288477;245;187;130;2.000000
-0.15127628;-1.08105779;-7.05980349;156;164;173;2.000000
5.73978615;-0.13058929;-5.03439045;210;210;210;0.000000
2.89516878;-1.70047522;-7.07519531;154;130;121;2.000000
-2.66505766;-1.78425968;-2.40280485;233;233;233;4.000000
7.45318317;-1.28360152;-3.16068912;168;168;168;4.000000
-0.00364207;-2.35910583;-5.98444271;163;130;97;1.000000
-0.83870405;-0.09102057;-3.32416797;205;205;205;0.000000
7.74506474;-2.04016352;-5.29170132;157;132;124;2.000000
1.15913486;-2.42902398;-2.82444525;171;138;105;1.000000
-0.63911599;-2.39181972;-3.81291533;136;103;78;1.000000
7.75246143;-1.38184261;-5.01675510;156;164;173;2.000000
1.25518513;-2.35554099;-6.88848925;158;125;92;1.000000
6.33452654;-0.13348302;-5.22655010;221;221;221;0.000000
-2.79350734;-1.85672116;-1.85126209;191;158;150;2.000000
2.17802453;-1.70961058;-7.05529547;181;148;140;2.000000
3.96848273;-1.36906934;-7.12737131;203;203;203;2.000000
2.62212300;-2.41295958;-4.55736303;142;101;76;1.000000
6.66117191;-0.12950544;-5.63780117;219;219;219;0.000000
6.40093374;-2.48142171;-3.04817629;158;117;84;1.000000
0.51078606;-1.07833779;-7.35633659;237;171;121;2.000000
-2.06764817;-0.01281171;-6.89348650;224;224;224;0.000000
5.86690140;-1.93748868;-5.32977581;92;92;92;5.000000
7.75907516;-0.48697510;-6.59513760;158;167;175;2.000000
5.66869068;-1.88809478;-4.76083660;150;109;92;3.000000
1.96325862;-2.41118598;-4.26796532;127;94;77;1.000000
4.62709665;-1.05788207;-7.11775541;142;142;150;2.000000
-0.45892945;-2.38632154;-4.22121525;115;82;57;1.000000
-2.79194450;-0.94626528;-6.38832235;156;164;173;2.000000
7.72332764;-1.79486620;-6.65995741;183;150;142;2.000000
6.31937551;-0.13627228;-5.06444883;210;210;210;0.000000
3.70833659;-2.39702201;-6.07451296;148;115;90;1.000000
4.15861464;-0.30711141;-7.05576277;156;164;173;2.000000
4.60566807;-0.27225164;-7.05614710;156;164;173;2.000000
5.17752218;-2.14531898;-3.37641430;113;113;113;5.000000
3.49097157;-2.40426850;-5.54809761;142;109;84;1.000000
-2.34942389;-2.35597920;-4.77150154;145;112;87;1.000000
-0.51066881;-0.56163508;-7.04980516;154;163;171;2.000000
1.74418271;-0.12264593;-3.11211586;221;221;221;0.000000
6.96468306;-2.44431829;-5.41839981;150;109;84;1.000000
6.52811003;-2.41224957;-6.92176342;134;101;84;1.000000
5.76373148;-2.38322687;-5.35794544;107;107;107;5.000000
5.68857384;-2.43685436;-5.07506418;146;105;80;1.000000
7.01144791;-2.39832473;-1.99401426;163;163;163;4.000000
7.75498676;-1.28687489;-4.14829350;158;167;175;2.000000
7.44125128;-2.02310944;-5.75170183;102;85;69;4.000000
-2.78790879;-1.47240913;-2.96556759;181;139;106;2.000000
2.61236191;-0.85555249;-7.11524391;130;130;138;2.000000
5.67817402;-2.12287951;-7.09130383;173;140;131;2.000000
2.55375051;-2.42290092;-3.97536516;142;109;92;1.000000
4.18254375;-2.38680840;-6.91698599;140;99;74;1.000000
1.85417604;-0.07931934;-5.55628395;221;221;221;0.000000
3.77002406;-0.72393322;-7.11550856;127;135;143;2.000000
2.04500532;-2.39392662;-5.25666857;135;102;85;1.000000
4.46618986;-2.38754892;-7.04617214;138;105;80;1.000000
0.15035413;-2.43267703;-2.03534889;146;105;80;1.000000
5.20006990;-2.45041299;-4.04210806;154;121;88;1.000000
0.93718058;-2.38015079;-5.36611414;167;125;101;1.000000
1.75789714;-2.43207216;-3.00911331;164;123;98;1.000000
5.63308573;-1.70221424;-7.08375740;156;164;173;2.000000
-2.80598545;-2.20485115;-6.85857677;174;149;141;2.000000
1.91875350;-2.36865401;-6.56031609;175;134;101;1.000000
-2.79482174;-1.27949548;-6.03692722;157;165;173;2.000000
4.70074558;-2.21343017;-3.93621397;91;91;91;3.000000
-2.23522186;-1.82180738;-7.06824493;187;154;146;2.000000
5.24749565;-1.94579124;-2.91783428;171;121;97;5.000000
3.15159917;-0.06781057;-6.95407915;221;221;221;0.000000
-2.76674795;-0.15675305;-6.33912468;224;224;224;2.000000
5.37173367;-2.42709780;-5.42376900;150;117;92;1.000000
-1.52812505;-0.10865922;-1.94862795;152;152;152;0.000000
3.64062452;-2.15488839;-7.08730555;173;148;140;2.000000
6.54069042;-1.91254163;-5.48098993;171;113;88;5.000000
2.63498592;-2.37051177;-6.88282776;124;91;58;1.000000
-2.78232646;-0.79240477;-1.84718657;156;164;173;2.000000
-2.78241920;-0.74443334;-2.18577337;156;164;173;2.000000
3.88659930;-1.27071941;-7.11986303;198;198;198;2.000000
1.69434798;-2.45034885;-1.97562599;157;132;107;1.000000
7.54586506;-0.52064711;-7.06713104;154;163;171;2.000000
-0.61300564;-1.66979623;-7.05132818;186;153;145;2.000000
6.20287228;-2.41764855;-6.43321276;142;101;76;1.000000
-2.66286898;-2.39740777;-2.31155920;150;101;68;1.000000
-1.17159855;-0.06577639;-4.51392746;224;224;224;0.000000
1.37345314;-2.44286203;-2.19571161;142;109;84;1.000000
0.32085991;-2.38972211;-4.49480438;148;131;107;1.000000
1.05752409;-2.39299536;-4.73183632;138;97;72;1.000000
2.73553944;-0.09138820;-5.41378355;201;201;201;0.000000
-2.47569966;-2.38905239;-2.88080502;145;120;95;1.000000
7.75937176;-0.92843807;-3.79561543;158;167;175;2.000000
4.18777418;-2.40474701;-5.93869543;181;140;115;1.000000
4.18342209;-2.41175222;-5.55286837;142;109;92;1.000000
4.14127207;-1.92536306;-7.08436489;173;140;132;2.000000
0.94548458;-1.68394756;-7.27495670;239;239;239;2.000000
7.60722780;-1.28789210;-5.11912251;165;99;108;4.000000
-2.63184714;-2.31549215;-6.82807684;121;97;80;1.000000
-1.63840806;-2.34525084;-5.78034592;150;109;84;1.000000
4.91791010;-2.43852592;-4.52748680;163;130;97;1.000000
6.04794168;-0.13862723;-4.77492142;215;215;215;0.000000
-1.75805879;-2.17819810;-7.07562208;186;153;145;2.000000
6.87525272;-2.44021893;-5.59075260;158;125;92;1.000000
-1.41453004;-0.03200103;-6.22526360;223;223;223;0.000000
2.96047330;-1.91235423;-3.39794540;163;113;97;5.000000
-0.07154176;-1.37660241;-7.15860653;240;248;248;2.000000
5.43693638;-0.13266665;-4.74154568;193;193;193;0.000000
-2.44769788;-2.37718391;-3.54907584;142;109;84;1.000000
7.73221922;-0.45042261;-1.94952202;140;16;16;2.000000
3.59043169;-2.36286139;-7.07427263;151;127;118;2.000000
-2.65719438;-2.10741377;-2.15823364;181;198;181;4.000000
1.76557016;-1.89314449;-5.82498217;71;71;71;5.000000
7.75946188;-1.17252100;-2.29059505;158;167;175;2.000000
-2.28692222;-2.32656884;-6.42344618;142;109;84;1.000000
1.58613968;-2.38124776;-5.67893219;158;125;101;1.000000
7.75214958;-1.07986486;-6.99262524;158;167;175;2.000000
-1.56616998;-1.55203032;-7.06496954;156;164;173;2.000000
-1.40759230;-2.39226556;-3.33483505;148;115;82;1.000000
2.34962082;-2.38910866;-5.69776440;138;105;80;1.000000
5.25553894;-1.93676341;-3.41835189;175;125;101;5.000000
5.41179228;-2.09194255;-3.02803326;117;117;117;5.000000
-2.78241587;-0.81210369;-1.78004456;154;163;171;2.000000
-2.76302433;-2.38464808;-2.95310879;134;117;92;1.000000
6.48521137;-2.43707752;-5.53301954;146;113;88;1.000000
6.50885677;-2.48931766;-2.67827702;158;117;84;1.000000
0.57996613;-2.35473394;-6.55447674;154;121;97;1.000000
-1.04619551;-2.36773682;-4.89512110;153;120;95;1.000000
0.28324142;0.19778313;-4.27408314;216;216;216;0.000000
-2.78479767;-0.41445914;-5.50134659;154;163;171;2.000000
-1.13387573;-0.99483442;-7.05607605;156;164;173;2.000000
2.06124163;-2.11516619;-7.08306408;184;151;143;2.000000
5.97317696;-0.18571715;-2.14490795;221;221;221;0.000000
7.34639931;-2.50518966;-2.30109501;121;97;72;1.000000
6.33358955;-2.48625422;-2.74305964;134;100;66;1.000000
0.09969978;-2.39727306;-3.94958138;142;109;84;1.000000
1.43874276;-1.92274046;-3.42204618;88;88;88;5.000000
-2.78807020;-0.77557731;-5.20709085;157;165;173;2.000000
-0.78731275;-2.40939522;-2.76030779;158;117;84;1.000000
1.18187344;-2.40556240;-4.11667347;182;157;132;1.000000
-2.56207728;-1.61156154;-2.50933409;158;158;158;4.000000
2.11099863;-1.58274496;-7.07375240;158;167;175;2.000000
6.76656866;-2.36376667;-7.08140469;176;143;135;2.000000
7.74647617;-1.71210372;-6.44531202;158;167;175;2.000000
6.16234064;-1.91329741;-5.21619844;171;121;105;5.000000
4.26154470;-2.44493651;-3.78420091;150;117;92;1.000000
6.10966206;-2.48110008;-1.84496784;156;131;123;2.000000
-2.65361071;-2.07539988;-2.36954546;180;197;180;4.000000
-2.34344864;-2.31449842;-7.05286169;138;97;72;1.000000
6.10869360;-1.37519753;-7.07903528;156;164;173;2.000000
4.31311226;-2.40435266;-6.03525543;140;99;74;1.000000
6.10242653;-0.13722426;-4.88408613;223;223;223;0.000000
7.56451893;-1.30219853;-5.16014194;160;152;0;4.000000
0.73950630;-2.42751265;-2.66667652;167;134;109;1.000000
-1.30237627;-2.39832735;-3.06410623;134;101;84;1.000000
3.36707091;-1.09994721;-7.12126064;156;156;164;2.000000
3.22945046;-2.45473051;-2.63629246;167;134;101;1.000000
7.60479689;-2.02402234;-5.86391020;97;97;97;4.000000
2.01308632;-0.07071728;-6.12244987;219;219;219;0.000000
7.17576694;-1.31697297;-1.98888159;76;76;76;4.000000
2.40658808;-2.40574574;-4.82427502;146;113;88;1.000000
1.42444730;-2.37489390;-5.93054199;165;140;116;1.000000
7.34049320;-2.47528863;-3.93955445;123;98;73;1.000000
-0.11016362;-2.10577011;-7.23433352;163;138;130;2.000000
5.73048353;-0.13556428;-4.75571156;215;215;215;0.000000
-1.84977579;-2.34543681;-5.64536762;156;123;98;1.000000
-2.78359246;-0.55331910;-3.98953867;154;163;171;2.000000
7.29867887;-1.83906186;-2.52182913;123;123;123;4.000000
-2.79786348;-2.15150523;-2.56703234;157;132;124;2.000000
-2.57520437;-2.36472774;-1.88191891;180;197;180;4.000000
-1.38531423;-0.65313476;-7.04946518;158;167;175;2.000000
1.81571817;-0.23853914;-7.04929924;156;164;173;2.000000
-2.14268041;-2.39165330;-2.93459082;148;115;91;1.000000
2.33787894;-2.39141059;-5.56542873;115;99;82;1.000000
7.69835615;-0.72890425;-7.07115841;154;163;171;2.000000
-2.78781652;-1.02620566;-3.56972814;154;163;171;2.000000
2.51263356;-1.15354753;-7.11471128;171;171;171;2.000000
6.39140177;-1.85090065;-7.08808851;181;148;140;2.000000
-1.25651407;-2.41549134;-2.14861584;164;131;98;1.000000
7.75751734;-0.82927275;-4.37583876;171;221;237;2.000000
7.76183414;-0.69701689;-3.77728057;156;164;173;2.000000
-2.63875175;-2.32243466;-6.44278622;154;113;80;1.000000
1.99061549;-1.96383917;-5.50821209;82;82;82;5.000000
7.73950958;-2.31755090;-6.79137278;181;148;140;2.000000
4.54793549;-2.39522791;-6.67490816;148;107;82;1.000000
3.24733305;-2.46471715;-2.10241508;146;113;88;1.000000
2.67534113;-2.39583373;-5.52206612;148;107;82;1.000000
4.81508255;-2.40289474;-6.41528988;177;152;136;1.000000
-2.79953504;-1.63630438;-6.58520126;156;164;173;2.000000
-2.24365950;-0.02694706;-6.01340151;222;222;222;0.000000
4.94512320;-1.93459892;-3.35397840;175;117;92;5.000000
2.27045155;-0.10863374;-4.19221401;220;220;220;0.000000
6.56798840;-2.42780995;-6.09077168;138;105;80;1.000000
-2.13994861;-2.32347202;-6.68022537;156;123;98;1.000000
-2.52219415;-1.33539987;-7.05899382;154;163;171;2.000000
1.13308859;-2.36356139;-6.38197327;148;115;82;1.000000
7.72915363;-2.40636516;-4.64291763;187;154;146;2.000000
-1.71723723;-2.00150609;-3.83028698;84;59;59;5.000000
6.63128567;-0.12684889;-5.76602745;218;218;218;0.000000
0.55604082;-2.42177868;-2.87329817;164;123;98;1.000000
2.74819517;-1.06695163;-7.11928988;163;163;163;2.000000
7.29856968;-2.44032907;-5.83455276;130;113;97;1.000000
5.71790171;-0.12906341;-5.10527563;201;201;201;0.000000
-2.42765236;-1.63485515;-2.41584444;229;229;229;4.000000
-2.79798293;-2.12471414;-2.79445219;187;154;146;2.000000
7.25123453;-2.45727944;-4.87581062;148;115;98;1.000000
-2.78103900;-1.75106490;-4.71205807;187;154;146;2.000000
5.74204588;-0.91948617;-7.11780357;138;138;154;2.000000
2.49506736;-2.43207717;-3.44080639;137;104;87;1.000000
-0.39400879;-2.33619833;-7.01198244;156;115;90;1.000000
7.14444399;-2.43740249;-5.90429449;148;115;91;1.000000
-0.72145796;-0.02560671;-6.98548222;224;224;224;0.000000
4.84310102;-2.18438649;-3.87128735;158;117;101;3.000000
-1.76549077;-2.00482941;-3.61926055;84;59;59;5.000000
4.59774256;-1.13874614;-7.11912107;148;156;164;2.000000
7.40567875;-2.46064663;-4.78209066;167;134;101;1.000000
-2.78098321;-1.65470672;-6.28580809;157;132;124;2.000000
-0.27127489;-1.90308130;-3.41389251;68;68;68;5.000000
1.84781075;-2.38691664;-5.52323246;150;109;84;1.000000
-0.11095950;-2.18213558;-7.23126745;154;130;121;2.000000
-2.79489970;-1.42369854;-5.22067165;156;164;173;2.000000
3.13236642;-2.46817470;-1.84624338;156;123;98;1.000000
5.75710392;-2.33017039;-5.35732937;117;117;117;5.000000
7.75972605;-1.10375321;-2.54999828;158;167;175;2.000000
3.87263656;-2.45894861;-2.78495169;153;120;95;1.000000
3.24981165;-0.95009845;-7.11834574;138;138;146;2.000000
3.53608656;-0.89038032;-7.11234617;130;130;138;2.000000
4.53798485;-2.46909666;-2.62533426;157;124;99;1.000000
5.35887194;-2.45569730;-3.84567571;158;125;92;1.000000
2.61314869;-2.36937451;-6.93193531;138;97;72;1.000000
-2.78768134;-1.02598298;-5.49589252;203;161;128;2.000000
-2.78836966;-1.03377545;-5.84031010;206;157;124;2.000000
0.12733193;0.07898904;-4.66221952;222;222;222;0.000000
3.34498620;-2.38984871;-6.24965620;175;150;117;1.000000
-2.76251197;-1.22509706;-3.22528243;224;200;175;2.000000
-0.28398812;-0.11593281;-2.28358793;224;224;224;0.000000
0.79624975;-2.42150474;-3.02820778;146;113;88;1.000000
3.77098560;-2.46617794;-2.32960272;146;105;80;1.000000
1.08069789;-0.06212807;-6.04375792;204;204;204;0.000000
3.41042757;-2.38865638;-6.35399961;175;142;109;1.000000
4.87474346;-0.33697668;-7.05789566;156;164;173;2.000000
5.29117918;-1.95223212;-3.69761848;62;54;54;5.000000
1.76809573;-2.01021957;-5.63935375;80;80;80;5.000000
4.84941101;0.09344997;-4.67118835;215;215;215;0.000000
5.95026016;-0.12707320;-5.35172892;219;219;219;0.000000
-1.31762040;-0.03986097;-5.85086107;221;221;221;0.000000
3.49245739;-2.42535043;-4.39566326;164;123;98;1.000000
-0.83037150;-2.38610506;-4.01384783;134;117;83;1.000000
4.35113096;-2.44747424;-3.69893813;150;109;92;1.000000
-2.20845580;-1.85571921;-3.50397110;127;102;85;3.000000
4.08411551;-2.47180462;-2.20817995;158;117;84;1.000000
-2.79364514;-1.10105789;-6.43184805;156;164;173;2.000000
7.25606632;-1.57801712;-2.33022833;103;103;103;4.000000
-1.95175040;-2.35358095;-5.13791370;148;107;82;1.000000
6.93298149;-2.48331141;-3.25843382;150;109;84;1.000000
-2.61903858;-0.31174558;-7.04065895;156;164;173;2.000000
7.76305723;-0.16585523;-4.29210186;221;221;221;0.000000
3.21973801;-1.19200552;-7.12255955;167;167;175;2.000000
7.36128569;-2.48606777;-3.35991359;138;97;72;1.000000
7.45515442;-0.20560873;-1.92735147;189;189;189;0.000000
5.61596775;-2.48062563;-2.62854195;171;138;105;1.000000
2.97100806;-2.40992975;-4.92739296;150;117;92;1.000000
-2.79357004;-1.28466856;-5.29512835;156;164;173;2.000000
-2.74677014;-0.07500166;-6.72992229;175;175;175;2.000000
-1.64950180;-2.32646489;-6.80541277;148;107;82;1.000000
7.38650274;-0.39828458;-7.06460857;154;163;171;2.000000
-1.47154272;-2.39131832;-3.34908247;140;107;82;1.000000
4.68238020;-2.40889335;-6.00773001;164;123;98;1.000000
-2.62298989;-2.38569164;-2.97840977;158;117;92;1.000000
2.82379270;-2.37563539;-6.71549273;156;115;90;1.000000
1.13220572;-2.39244103;-4.80392408;148;115;82;1.000000
5.41650677;-2.44987607;-4.19937611;150;109;84;1.000000
1.27615595;-2.37952924;-5.59099150;142;109;84;1.000000
2.49908733;-2.42537975;-3.80823708;160;127;102;1.000000
-0.45233932;-2.02435160;-3.55264044;82;82;82;5.000000
2.23692822;-0.07582198;-5.97425461;222;222;222;0.000000
3.00751281;-2.44029188;-3.29329348;146;105;80;1.000000
5.94570017;-2.09463739;-5.70701981;97;97;97;5.000000
5.21984625;-1.95078623;-3.73489714;62;54;54;5.000000
0.12175851;-2.37336206;-5.27566147;163;121;88;1.000000
-1.85727346;-0.25116131;-7.04129314;156;164;173;2.000000
-2.78479385;-0.86075819;-2.84012556;156;164;173;2.000000
-1.61481774;-2.39889407;-2.84853125;171;130;97;1.000000
5.83684826;-0.12721244;-5.27711916;219;219;219;0.000000
-1.41574109;-1.99626815;-3.35310793;92;76;68;5.000000
3.02936029;-0.07041280;-6.73904085;224;224;224;0.000000
2.24893141;-1.04499745;-7.11219931;150;150;158;2.000000
-2.78465128;-0.24652453;-6.41868401;157;165;173;2.000000
2.54085493;-1.07362688;-7.11335993;158;158;158;2.000000
-0.02569325;-2.34326220;-6.84149694;145;112;87;1.000000
7.74541616;-2.27162266;-3.71314621;179;146;138;2.000000
0.57697958;-2.07528877;-7.35319233;245;179;121;2.000000
5.18808270;-1.65502989;-7.10702801;156;164;173;2.000000
7.46373796;-1.87425315;-3.25498462;146;146;146;4.000000
0.90052074;-0.04991793;-6.60787201;221;221;221;0.000000
6.62719154;-0.12668620;-5.77254009;224;224;224;0.000000
-2.57280993;-2.39898372;-2.27811623;134;100;83;1.000000
7.71539545;-2.49266362;-3.20672607;163;130;105;1.000000
2.13047552;-2.42776918;-3.46199989;157;124;99;1.000000
-2.76939344;-0.90824127;-4.78824663;97;121;105;2.000000
0.20288400;-0.10581999;-3.12629414;169;169;169;0.000000
0.41825384;-1.95968997;-7.35084915;241;175;117;2.000000
5.59505892;-0.19342692;-7.05696917;154;163;171;2.000000
-1.89470494;-2.32957530;-6.48983669;154;113;88;1.000000
3.00219607;-2.06658673;-3.27241611;87;87;87;5.000000
-2.76776409;-0.88434136;-4.00672436;94;118;102;2.000000
7.76446104;-0.19160607;-5.29804659;156;164;173;2.000000
7.75901031;-0.94787943;-3.88485479;156;164;173;2.000000
5.67072201;-0.13515317;-4.74301958;221;221;221;0.000000
6.03824949;-0.13062197;-5.20877361;221;221;221;0.000000
-2.79759455;-1.38828719;-6.96164274;154;163;171;2.000000
1.13673532;-0.08295324;-4.93326187;221;221;221;0.000000
0.77260941;-0.09161764;-4.24249077;221;221;221;0.000000
-0.05248301;-2.17398810;-3.51080465;88;88;88;3.000000
5.37249374;-1.47061038;-7.12672997;175;175;183;2.000000
3.47092199;-2.31583047;-7.07701254;183;150;142;2.000000
-1.39848804;-2.36624503;-4.76907921;124;107;90;1.000000
-0.92719263;-2.40748549;-2.78260326;164;131;98;1.000000
3.60331964;-2.39443111;-5.65921879;69;69;69;5.000000
0.81884122;-1.52265179;-7.34830427;171;171;171;2.000000
-1.24943805;-1.85803950;-7.07109499;189;155;138;2.000000
-1.80602384;-0.08683522;-2.98303938;212;212;212;0.000000
-2.79145145;-1.11518967;-5.10275841;154;163;171;2.000000
-2.79489040;-1.65513730;-3.83714652;156;164;173;2.000000
5.16933393;-1.94889319;-2.70134735;151;102;85;5.000000
5.69213247;-2.47191310;-3.15193701;171;130;97;1.000000
-0.42257449;-1.42004240;-7.06519556;154;163;171;2.000000
-2.06732869;-2.08493257;-6.07148123;125;76;68;3.000000
6.59218740;-2.18997788;-5.52798176;107;107;107;5.000000
6.04633474;-2.43396974;-5.44461823;140;107;82;1.000000
0.13679539;-0.04705860;-6.31409407;221;221;221;0.000000
6.33265400;-0.14247985;-4.73141003;218;218;218;0.000000
-2.79593086;-1.31147575;-6.47482491;156;164;173;2.000000
-0.59856158;-2.40196896;-3.27958226;146;105;80;1.000000
6.63419819;-0.13236324;-5.46492767;193;193;193;0.000000
6.46608353;-0.14169315;-4.85336733;222;222;222;0.000000
6.46581650;-1.01850450;-7.07352257;156;164;173;2.000000
0.76673198;-2.40483427;-3.92231274;123;90;65;1.000000
-0.60929364;-1.98555613;-5.59038734;80;80;80;5.000000
-2.72897768;-1.78276181;-1.87127447;181;198;181;2.000000
7.70941639;-0.17430183;-3.79658747;212;212;212;0.000000
5.01726532;-0.73206365;-7.09968901;175;175;175;2.000000
6.49742508;-2.41141558;-6.94944096;132;99;74;1.000000
2.02470851;-2.36687565;-6.71938181;171;138;105;1.000000
-2.78568244;-0.52785677;-5.32730865;156;164;173;2.000000
0.39366841;-1.86462331;-7.34909630;236;170;120;2.000000
-2.53160453;-2.34613276;-5.20468807;156;115;90;1.000000
-2.79155827;-1.66243982;-1.90287209;156;164;173;2.000000
3.36333179;-0.15692751;-2.18532610;204;204;204;0.000000
1.69538784;-0.15318950;-7.04751873;156;164;173;2.000000
4.67161798;-2.47604203;-2.32281780;150;109;76;1.000000
-2.60714436;-2.24871874;-6.16151571;117;117;117;5.000000
2.07976079;-0.98624259;-7.06312466;157;165;173;2.000000
7.65348387;-2.47298431;-4.25083542;142;109;84;1.000000
-0.83182085;-0.07648365;-4.12651348;221;221;221;0.000000
5.50481844;-1.91449416;-5.84572887;167;117;92;5.000000
-1.34288967;-1.86389971;-3.49242377;200;150;125;5.000000
1.72378683;-2.00711441;-7.08039522;187;154;146;2.000000
-2.79900718;-1.54095185;-6.85416317;156;164;173;2.000000
-0.49786177;-1.99039304;-5.79848003;80;80;80;5.000000
-2.79232526;-1.48494041;-5.39715242;203;153;120;2.000000
-0.11719625;-2.37843657;-4.85593796;140;107;82;1.000000
-0.81999117;-2.40019751;-3.24614215;130;88;64;1.000000
-1.69271660;-2.35226130;-5.36330318;148;107;82;1.000000
-0.78776115;-0.10010293;-2.85551214;221;221;221;0.000000
3.83464265;-2.42614245;-4.55701637;163;130;97;1.000000
7.74766684;-1.65325654;-6.11983252;158;167;175;2.000000
7.75503635;-1.03995657;-5.59116602;154;163;171;2.000000
-2.37008452;-2.34508848;-5.35736132;158;117;92;1.000000
6.51075459;-2.41944551;-6.51631260;143;110;85;1.000000
-2.79651213;-1.94743991;-3.01638794;187;154;146;2.000000
4.16408253;-0.86883223;-7.11337233;131;131;140;2.000000
3.59602833;-2.47086596;-1.97156715;150;117;101;1.000000
-1.43790042;-0.06186275;-4.57166576;215;215;215;0.000000
5.88239622;-2.45927954;-3.95801520;154;113;88;1.000000
2.81010413;-0.06921430;-6.67543030;223;223;223;0.000000
4.57846451;-2.48149085;-1.96860170;158;125;101;1.000000
4.88677883;-2.45239115;-3.74855089;149;124;99;1.000000
-0.50242847;-1.89675593;-3.66720605;59;59;59;5.000000
6.08526754;-1.17850733;-7.07550144;156;164;173;2.000000
-1.76435924;-2.13961172;-3.88924217;125;92;76;5.000000
6.38686848;-0.96819746;-7.07245541;156;164;173;2.000000
-1.31086826;-2.19875407;-3.93611789;68;59;59;5.000000
-2.02826881;-2.33260131;-6.24482727;148;107;74;1.000000
5.07841396;-1.29181528;-7.12290716;191;191;191;2.000000
5.97034454;-2.44812894;-2.97618198;113;113;113;3.000000
3.50275183;-2.39028001;-6.32037830;163;130;97;1.000000
3.71219945;-1.54379892;-7.12430573;158;158;158;2.000000
5.20911503;-2.45568585;-3.75791454;164;123;98;1.000000
-0.64200479;-1.79276645;-7.07130051;191;158;150;2.000000
-0.55602586;-1.89718819;-3.24240327;76;76;76;5.000000
0.13495323;-2.16070127;-3.38014483;92;68;59;3.000000
5.10478926;-1.94766605;-3.83832383;84;68;59;5.000000
3.05758286;-1.93409038;-3.36931610;62;54;54;5.000000
6.45622492;-2.49692702;-2.22933817;123;106;82;1.000000
0.61301154;-0.09813000;-3.79067731;224;224;224;0.000000
-0.83821988;-2.37821627;-4.44240284;140;99;74;1.000000
2.65924549;-2.39241529;-5.69904900;142;109;84;1.000000
5.86804962;-1.89358163;-6.12509918;175;125;109;5.000000
-2.78533864;-1.37931097;-2.86935139;255;255;255;2.000000
7.52601194;-0.20409794;-2.05214882;221;221;221;0.000000
-2.10849285;-0.09740131;-2.22426653;221;221;221;0.000000
0.04671703;-1.90900695;-7.31935453;154;130;121;2.000000
5.85054207;-0.13754942;-4.71757317;197;197;197;0.000000
6.65305281;-2.42067671;-6.53271580;134;101;76;1.000000
1.91600943;-2.44286442;-2.51353693;154;113;88;1.000000
6.77346134;-0.19554751;-2.07745743;204;204;204;0.000000
1.36685181;-0.07986961;-5.23839712;221;221;221;0.000000
6.32272053;-0.13501909;-5.13523436;221;221;221;0.000000
1.53593242;-2.41984868;-3.54537010;146;105;80;1.000000
-1.30807436;-1.96579325;-3.73844409;82;74;74;5.000000
5.81418610;-0.12948222;-5.13910627;189;189;189;0.000000
5.68995047;-1.91462052;-5.97238064;62;54;54;5.000000
2.85614347;-2.40424013;-5.16993046;134;101;76;1.000000
7.75402021;-1.39014244;-4.08169746;156;164;173;2.000000
7.76044226;-0.69528818;-4.57694435;156;164;173;2.000000
3.41359663;-2.43451762;-3.84699583;158;125;101;1.000000
6.55704880;-1.92943335;-5.67072678;91;66;58;5.000000
2.07921791;-1.86408460;-7.07866049;154;130;121;2.000000
-1.17900860;-2.37251616;-4.55428505;130;97;72;1.000000
6.57325745;-0.12831016;-5.65155363;206;206;206;0.000000
0.63393641;-0.90747458;-7.33228874;242;184;127;2.000000
-0.99723250;-0.09468442;-3.02940559;188;188;188;0.000000
-1.01313221;-1.14531755;-7.05901003;156;164;173;2.000000
5.48099804;-2.42857480;-5.40715885;145;120;95;1.000000
5.65500736;-2.41136503;-6.45429373;142;109;84;1.000000
-0.70038497;-1.04973662;-7.05801916;157;165;173;2.000000
3.07538080;-0.59547001;-7.05843925;158;167;175;2.000000
2.44453073;-1.59685874;-7.12240458;148;148;148;2.000000
-2.77707362;-1.89615989;-7.06834698;182;149;141;2.000000
4.30330801;-0.38303655;-7.05743074;156;164;173;2.000000
3.05588603;-2.45721531;-2.39914560;156;123;98;1.000000
1.20582020;-1.91941476;-3.38884711;59;59;59;5.000000
7.72697258;-2.42527485;-3.83710694;184;151;143;2.000000
-2.74255013;-0.19014947;-2.10077667;181;181;181;2.000000
3.98965216;-1.42842197;-7.12288523;196;196;196;2.000000
5.46505833;-2.48659992;-2.21134520;134;101;84;1.000000
3.37578201;-2.39022303;-6.24759912;150;117;92;1.000000
4.29980326;-2.45647192;-3.17598987;130;105;88;1.000000
5.45137310;-1.04791188;-7.11942577;138;146;154;2.000000
6.51147318;-2.18367052;-5.90806055;82;82;82;3.000000
-2.79529572;-1.60035133;-4.39384604;154;163;171;2.000000
6.15880346;-0.13307124;-5.14544678;204;204;204;0.000000
5.25438166;-1.91039956;-3.40134907;88;64;64;5.000000
0.37496018;-2.43764925;-1.89489269;130;97;72;1.000000
2.26961017;-1.27183950;-7.12184381;163;171;179;2.000000
-1.02444541;-2.39362359;-3.48644853;140;107;82;1.000000
5.40623951;-2.46220660;-3.51619768;191;158;125;1.000000
1.73984540;-2.45252132;-1.88385963;157;124;99;1.000000
5.84911537;-2.41637516;-6.29439545;127;102;77;1.000000
-1.51395833;-1.38261414;-7.06208801;156;164;173;2.000000
-1.68684065;-0.03223833;-6.05151463;207;207;207;0.000000
6.16636372;-0.13158566;-5.23147011;212;212;212;0.000000
4.89593172;-2.47246575;-2.65157700;137;104;79;1.000000
5.94597387;-1.91668022;-6.01038361;62;54;54;5.000000
7.72540092;-2.41264892;-4.80480862;187;154;146;2.000000
2.91279554;-2.42777562;-3.92005563;154;113;88;1.000000
-1.92535365;-2.34849000;-5.43308592;123;98;82;1.000000
4.06779051;-2.18103099;-5.51111269;97;97;97;3.000000
0.45542958;-0.13131401;-1.87541485;222;222;222;0.000000
-2.76080680;-1.92277956;-1.90850210;179;179;179;2.000000
-0.99332303;-2.36288285;-5.19289017;106;82;65;1.000000
1.33977032;-1.89408290;-3.44458008;167;117;92;5.000000
0.97164065;-2.36711907;-6.09726191;137;112;95;1.000000
-2.20214319;-2.40793395;-2.00544310;148;115;91;1.000000
6.06141853;-0.13210750;-5.14088964;221;221;221;0.000000
3.74496198;-2.46358442;-2.45572090;150;109;84;1.000000
-2.78248954;-0.74278861;-2.23569822;158;167;175;2.000000
0.11386994;-2.40638709;-3.45743465;164;123;98;1.000000
7.56455564;-2.47011352;-4.35600471;134;101;84;1.000000
-0.53937036;-0.81426716;-7.05421209;156;164;173;2.000000
1.63490641;-2.42611504;-3.26180434;132;99;74;1.000000
-0.10790293;-0.05522612;-5.72117519;177;177;177;0.000000
-2.62223506;-0.81224644;-7.04951048;156;164;173;2.000000
1.22102571;-2.35260987;-7.02984476;146;113;88;1.000000
7.75388861;-1.21060646;-5.22631168;156;164;173;2.000000
4.78649378;-0.74500901;-7.11815929;130;138;146;2.000000
3.22687674;-0.77008438;-7.10952425;148;148;164;2.000000
5.21312523;-2.04332447;-5.13704538;101;101;101;3.000000
1.46182787;-0.05264087;-6.78969097;205;205;205;0.000000
-2.76892376;-2.35066700;-4.81559181;127;110;93;1.000000
5.18385410;-2.38591599;-3.43648410;91;91;91;5.000000
5.27494764;-1.90947008;-3.41169643;82;65;65;5.000000
-2.19820428;-2.07098413;-5.94230223;154;113;97;3.000000
7.55080032;-0.61808383;-7.06886673;154;163;171;2.000000
5.80841351;-0.10047658;-6.72852230;211;211;211;0.000000
4.67602682;-2.48181033;-1.84804249;156;131;123;2.000000
7.33797836;-1.48957121;-2.64815807;107;107;107;4.000000
-2.72176838;-0.04786842;-4.58229303;222;222;222;0.000000
-2.61393929;-2.18343139;-2.81854963;231;231;231;4.000000
7.43919134;-0.86610168;-7.07300615;157;165;173;2.000000
-0.41487756;-0.12381576;-7.01527786;193;193;193;2.000000
4.26399946;-0.16829368;-2.09282255;221;221;221;0.000000
0.18875299;-0.05531076;-5.89161205;221;221;221;0.000000
7.67711258;-2.51162744;-2.14275694;121;97;72;1.000000
-2.77802730;-0.36955753;-1.92634249;156;164;173;2.000000
-0.01602090;-2.42745376;-2.22393560;131;106;82;1.000000
1.97710860;-2.39734912;-5.03035688;134;101;76;1.000000
5.34893131;-1.96678531;-3.73812699;72;72;72;5.000000
1.69249833;-2.44946527;-2.02269077;154;121;88;1.000000
5.19612312;-0.09792651;-6.50712967;185;185;185;0.000000
5.59705734;-2.43862653;-4.92368031;157;115;82;1.000000
1.50482821;-2.43237233;-2.84446096;140;99;74;1.000000
-0.90556443;-2.40123749;-3.13852382;145;112;87;1.000000
-1.57891893;-0.06762705;-7.01164198;193;193;193;2.000000
-0.29850385;-2.37062669;-5.17777729;150;117;92;1.000000
6.44504070;-0.19129033;-2.11739874;218;218;218;0.000000
-2.15327621;-1.40842807;-7.05956841;101;101;117;2.000000
7.21202087;-1.31587636;-2.20518255;168;168;168;4.000000
7.25254726;-1.22392750;-2.28602934;97;97;97;4.000000
-2.44148517;-1.85805082;-5.48614311;173;124;107;5.000000
4.62993050;-0.15885691;-2.82701826;224;224;224;0.000000
1.33055449;-2.42003894;-3.41468978;134;101;76;1.000000
-2.36872029;-0.05464847;-4.41837454;218;218;218;0.000000
5.69401026;-0.13558444;-4.73308372;224;224;224;0.000000
7.46519613;-1.97753608;-3.06308508;146;146;146;4.000000
6.43227243;-0.21803160;-7.05928040;157;165;173;2.000000
4.20443439;-0.63737023;-7.06171036;154;163;171;2.000000
-0.13383789;-0.06409811;-5.21866512;222;222;222;0.000000
-0.49700254;-2.36412096;-5.41786051;154;121;88;1.000000
-2.63970375;-1.86219680;-7.06805372;186;153;145;2.000000
7.76033592;-1.05328500;-2.50469112;156;164;173;2.000000
-1.37328899;-0.04759397;-5.39334869;188;188;188;0.000000
-2.66328096;-1.77242053;-5.88317585;74;74;90;5.000000
4.38913679;-2.20492125;-3.29361343;123;82;74;3.000000
3.98620749;-2.18777323;-7.08866167;179;146;138;2.000000
1.02643788;-2.44513392;-1.86844254;158;134;109;1.000000
-2.78412294;-0.83251637;-2.62798023;158;167;175;2.000000
5.39939260;-0.13134813;-4.79180813;221;221;221;0.000000
5.74775553;-1.23610973;-7.12900496;167;167;175;2.000000
6.54167032;-0.13936260;-5.02594948;227;227;227;0.000000
3.54352164;-0.24692026;-7.05331898;158;167;175;2.000000
-2.75249839;-2.35900235;-4.36758375;138;97;64;1.000000
6.81380987;-2.41223860;-7.07314920;163;138;130;2.000000
6.46864223;-0.12713307;-5.65440655;227;227;227;0.000000
7.63625145;-2.50024509;-2.74370003;158;125;92;1.000000
3.42406273;-2.05397153;-7.08503437;179;146;138;2.000000
2.56807733;-0.09128162;-5.32076645;211;211;211;0.000000
-2.79084468;-1.34436071;-5.39408541;194;153;120;2.000000
5.47330046;-0.13039333;-4.88784361;222;222;222;0.000000
5.33358765;-2.42058969;-5.75740147;146;105;80;1.000000
-2.78555822;-0.85310543;-6.58237982;255;255;255;2.000000
6.26725864;-1.92683613;-5.64231634;62;54;54;5.000000
5.25804424;-1.50435185;-7.12707090;179;179;179;2.000000
-1.15915751;-2.27620888;-7.06209707;165;140;132;2.000000
-2.80164051;-1.98012149;-5.73177099;153;128;120;2.000000
5.81413603;-2.49481273;-1.96642494;158;117;92;1.000000
7.75583935;-1.52101660;-2.26954508;156;164;173;2.000000
6.40744543;-0.13421921;-5.22918606;227;227;227;0.000000
6.71347523;-0.11261043;-6.59643984;204;204;204;0.000000
0.55513966;-2.42980909;-2.43172884;140;99;74;1.000000
6.90974617;-1.63262701;-7.08538628;156;164;173;2.000000
6.07839727;-2.40565157;-7.01861620;142;109;84;1.000000
4.97602797;-2.39647079;-6.86299849;158;125;92;1.000000
4.59607983;-1.26508439;-7.12135315;167;167;175;2.000000
3.72947717;-2.42714667;-4.43918180;171;130;97;1.000000
-0.48346299;-2.37951684;-4.58042908;140;107;90;1.000000
-2.77842093;-0.38778389;-2.04118347;157;165;173;2.000000
2.47081041;-2.40935874;-4.66501093;140;99;74;1.000000
-2.76881909;-0.82271063;-2.95285130;220;196;171;2.000000
-2.76871133;-0.84212655;-4.79534674;92;117;101;2.000000
-0.33825877;-1.87450206;-3.52932739;165;115;91;5.000000
-2.78752470;-1.15738130;-2.62295294;158;167;175;2.000000
7.24535322;-2.49387145;-2.86295080;140;115;98;1.000000
5.83138752;-1.44184732;-7.13283348;171;179;179;2.000000
6.01199961;-2.47406721;-3.22245860;146;113;88;1.000000
0.11553232;-2.38028669;-4.89171124;165;124;91;1.000000
3.92494059;-0.77458590;-7.11116838;127;135;143;2.000000
6.54927588;-0.12483083;-5.82843447;224;224;224;0.000000
7.75184631;-1.35876799;-5.50218964;156;164;173;2.000000
5.40679455;-2.46543884;-3.33898568;138;105;80;1.000000
0.12834017;-1.83470190;-5.65506601;173;124;107;3.000000
-2.56956911;-1.76963127;-2.34013796;181;198;181;4.000000
7.47897577;-1.67214394;-3.24812126;140;140;140;4.000000
5.99705887;-2.46436024;-3.74665213;146;121;97;1.000000
1.31090581;-2.39694619;-4.66195297;150;117;92;1.000000
2.63408041;-1.31459796;-7.12341738;196;196;196;2.000000
1.14535499;-2.04301095;-3.47103024;80;80;80;5.000000
5.38136625;-1.96143210;-3.24565172;62;54;54;5.000000
0.72104800;-0.13544358;-1.80542278;193;193;193;0.000000
-2.77084661;-1.69577765;-4.35142803;181;148;140;2.000000
3.52172303;-1.76999855;-7.06643963;167;142;134;2.000000
2.81525850;-2.36968780;-7.03580618;131;98;74;1.000000
2.20024109;-2.43652320;-3.02572107;138;97;72;1.000000
-0.58680612;-2.34092426;-6.63866949;123;106;82;1.000000
4.36648464;-1.96612012;-3.59056354;76;59;59;3.000000
5.10654974;-2.40881681;-6.26561546;140;107;82;1.000000
-1.77244139;-0.14536026;-7.03961086;156;164;173;2.000000
0.51922327;-1.79691947;-7.36899090;239;173;115;2.000000
-2.67858982;-1.64474285;-7.04868889;154;130;121;2.000000
6.86064959;-2.46379161;-4.28766918;124;91;58;1.000000
-1.28555143;-0.03400329;-6.19144869;207;207;207;0.000000
4.80948496;-2.47403026;-2.51468420;146;105;88;1.000000
3.28122711;-0.99178714;-7.11357021;142;142;150;2.000000
-2.26306701;-2.34136772;-5.62489510;138;105;88;1.000000
-0.12275178;-2.35621762;-6.07276440;150;109;84;1.000000
7.41623831;-1.42879748;-2.95393753;106;106;106;4.000000
-2.78125453;-0.56810534;-2.57484961;156;164;173;2.000000
-0.45735618;-2.05637264;-7.07637978;183;150;142;2.000000
1.31793833;-2.39938092;-4.53333378;132;107;91;1.000000
-2.79811573;-1.84826028;-4.51685524;181;148;140;2.000000
-1.86765814;-2.40654159;-2.27934504;123;98;73;1.000000
-2.43594241;-1.76239443;-2.73357248;229;229;229;4.000000
1.88425791;-0.88437819;-7.06088352;157;165;173;2.000000
-1.44173574;-0.04551809;-5.46693420;224;224;224;0.000000
4.73193789;-0.16286452;-2.66716576;227;227;227;0.000000
4.14725828;-2.42165565;-4.98945999;135;102;77;1.000000
-0.60649681;-2.35991502;-5.58419704;150;117;92;1.000000
4.67322636;-0.37939304;-7.05819464;157;165;173;2.000000
4.85237217;-2.46046472;-3.28492355;146;105;80;1.000000
5.02110147;-2.38339424;-3.28829646;97;97;97;5.000000
-2.40640259;-0.05509489;-4.37160397;220;220;220;0.000000
-1.44447839;-2.41586018;-2.01740122;138;105;80;1.000000
4.75258875;-2.42946553;-4.92425537;146;113;88;1.000000
4.98689127;-1.71663702;-7.08256483;154;163;171;2.000000
7.76279068;-0.77003193;-2.79907227;156;164;173;2.000000
4.77965784;-2.39461422;-6.84708118;121;105;80;1.000000
2.61401987;-0.15570037;-1.81043577;193;193;193;0.000000
1.01283872;-2.34990835;-7.06198978;140;107;82;1.000000
1.04786170;-1.88775849;-3.61959028;171;121;97;5.000000
-2.79031324;-1.05104828;-4.83869028;158;167;175;2.000000
-2.08164835;-0.03530873;-5.64984417;227;227;227;0.000000
3.01101112;-1.94452178;-3.07569981;64;64;64;5.000000
4.04257536;-2.47596693;-1.95562506;146;105;80;1.000000
4.34207058;-2.43975306;-4.11593628;121;104;87;1.000000
-2.77130747;-1.08138692;-4.84338999;97;121;105;2.000000
6.94279051;-0.52735597;-7.06589842;158;167;175;2.000000
3.63426757;-2.41727042;-4.92250872;150;109;84;1.000000
7.26035213;-1.58942330;-2.42057562;170;170;170;4.000000
2.06903529;-1.87590802;-5.42277193;168;118;94;5.000000
-2.60208011;-2.24422646;-1.87972593;180;197;180;4.000000
0.00754601;-2.41056490;-3.16530228;142;117;92;1.000000
2.60509515;-2.43133736;-3.54559350;138;97;72;1.000000
-0.49423814;-2.42071819;-2.31156540;163;121;97;1.000000
3.45898199;-1.90393698;-5.26209259;62;54;54;5.000000
7.75260448;-1.51174557;-4.16107512;156;164;173;2.000000
-1.76098561;-1.25781500;-7.05152369;222;120;103;2.000000
-1.27628338;-1.85216045;-4.17639160;178;137;112;5.000000
1.32041097;-2.37418127;-5.90841532;146;105;80;1.000000
5.48521757;-2.45650649;-3.87581134;115;99;74;1.000000
-2.80265093;-2.07130694;-5.76197004;194;161;153;2.000000
5.71445322;-0.12699433;-5.21685982;210;210;210;0.000000
7.45133877;-2.27030420;-3.29167438;105;105;105;4.000000
2.94184017;-2.37347317;-6.90435266;137;104;79;1.000000
0.55661809;-2.37911510;-5.20955563;138;97;64;1.000000
2.08860898;-0.09243745;-4.97428226;207;207;207;0.000000
-1.76206696;-0.05591022;-4.70719624;221;221;221;0.000000
1.91829598;-2.43275619;-3.06579733;154;113;88;1.000000
7.41913891;-2.51380491;-1.87093449;154;121;88;1.000000
7.75686550;-0.84042472;-5.74236822;154;163;171;2.000000
-2.79452419;-1.46280432;-4.77529526;157;165;173;2.000000
-2.79297996;-1.46461809;-5.88974094;186;137;104;2.000000
6.91320324;-2.50392365;-2.11489916;143;110;85;1.000000
1.71475434;-0.13869752;-2.21330023;222;222;222;0.000000
6.09311819;-2.42229939;-6.11307669;121;97;80;1.000000
-2.79108357;-1.06018269;-5.22189999;154;163;171;2.000000
-2.79380679;-1.13866258;-6.29984188;158;167;175;2.000000
5.43153858;-0.92198569;-7.11715269;134;134;142;2.000000
-1.73793316;-2.32100701;-7.05295277;156;115;90;1.000000
5.87706852;-0.78496861;-7.12130976;146;138;154;2.000000
-0.22658078;-0.07142217;-4.76170444;214;214;214;0.000000
7.05150223;-2.49534488;-2.66757727;154;121;97;1.000000
6.20624876;-0.12298822;-5.72712469;219;219;219;0.000000
0.88262713;-1.39742362;-7.34156609;211;161;120;2.000000
4.23930168;-2.40974331;-5.69620180;154;130;105;1.000000
5.36970711;-2.44157934;-4.62738323;115;90;65;1.000000
-2.79914713;-2.27989745;-2.53050280;179;146;138;2.000000
7.32347631;-2.47824216;-3.76730776;148;107;82;1.000000
-0.84124428;-0.21658275;-7.04295731;156;164;173;2.000000
-0.43732038;-1.85684180;-5.85504055;64;64;64;5.000000
7.75816202;-0.58764797;-6.51342773;156;164;173;2.000000
2.27861047;-2.37716818;-6.30706167;156;115;90;1.000000
2.84640884;-1.94222009;-3.10490632;59;59;59;5.000000
-1.00501132;-2.33091617;-6.94138336;130;105;88;1.000000
-2.78506207;-0.57618666;-4.68715668;154;163;171;2.000000
1.61623895;-2.38293219;-5.60476494;156;123;98;1.000000
4.95465899;0.06349042;-4.15714073;221;221;221;0.000000
5.37744188;-0.11456873;-5.70027256;224;224;224;0.000000
-2.48914909;-2.27210498;-7.05904531;167;142;134;2.000000
2.20482135;-2.42019677;-3.91834927;145;120;95;1.000000
5.48176718;-2.48691988;-2.20366478;130;105;88;1.000000
-2.78032637;-0.51505482;-2.36407995;154;163;171;2.000000
-0.79272419;-0.09368597;-3.20495796;221;221;221;0.000000
-0.64486569;-2.34271479;-6.50605822;107;90;74;1.000000
6.19065666;-2.47861552;-3.07811880;132;99;74;1.000000
-2.58991647;-1.62291157;-2.10004950;200;191;68;4.000000
-2.42181349;-2.38303018;-3.24331927;167;134;101;1.000000
1.18581069;-2.03833389;-3.75177479;82;82;82;5.000000
5.19281960;-2.48732233;-2.01097393;148;115;91;1.000000
1.00394499;-2.41429257;-3.53845048;167;134;101;1.000000
4.97460699;-1.37335587;-7.12970161;187;187;187;2.000000
-0.56806839;-2.38223362;-4.38128471;148;115;98;1.000000
2.14914227;-2.44654608;-2.44944715;150;109;84;1.000000
-2.15015221;-2.41060400;-1.88953161;153;120;95;1.000000
1.10536754;-0.08117504;-5.01238346;221;221;221;0.000000
-2.52904916;-2.36982107;-3.90536690;173;140;107;1.000000
0.96842402;-2.42542934;-2.91021919;154;113;88;1.000000
-0.40603697;-1.35659230;-7.06410933;158;167;175;2.000000
2.68676949;-2.37335491;-6.75827694;125;101;84;1.000000
1.96979344;-2.39377046;-5.22110271;130;97;72;1.000000
5.73855782;-1.91991460;-6.07911396;98;98;98;5.000000
3.56302023;-1.56433928;-7.12991858;154;154;154;2.000000
